4.497815 0.383739 -1.408263 
-1.796588 2.260625 -0.767795 
-1.060090 2.129603 -2.526638 
0.848346 2.452095 -2.176763 
1.199764 -0.336422 -3.062394 
-0.944225 -5.280496 2.589845 
3.286172 0.155643 -3.976937 
-3.169471 -1.465015 -2.002209 
-1.456485 -5.175002 2.773743 
4.289480 1.201990 -3.793581 
-0.878536 -3.346562 1.265491 
-0.886660 1.994232 -3.154917 
-1.631900 2.199051 4.709988 
-0.875339 -1.181162 -1.209990 
-1.672311 2.527062 2.578916 
1.374154 -0.403783 -2.953581 
4.367854 -0.701447 1.427489 
2.531093 0.367951 -4.215507 
4.256021 -0.515319 1.948867 
1.629601 0.644311 -4.396535 
3.616318 -2.415206 2.137249 
1.027725 -4.427825 2.166078 
-2.199182 2.197075 3.599326 
1.325346 2.483586 -2.063303 
3.103497 -3.209023 2.425561 
3.968292 1.841256 -3.545580 
-1.381262 -3.274566 1.030177 
-0.815202 -5.209614 2.437725 
2.085760 1.541580 -4.530192 
4.378068 -0.346593 -2.780129 
2.165496 -0.494911 -2.903025 
-2.984836 1.796401 -1.597016 
-3.657896 -2.049216 2.878001 
0.452824 2.685451 -1.076655 
4.528296 0.090640 -0.263690 
-0.658515 -2.615109 0.622546 
-2.492162 1.382570 -3.748911 
-2.396599 -4.586568 3.137143 
2.752070 -3.516096 1.922799 
-2.865125 2.124015 0.468086 
4.549038 0.242830 -2.766078 
3.113982 2.824493 0.330425 
-1.328158 2.203947 -1.872275 
2.961259 0.281571 -4.134984 
0.274680 1.807657 -4.128148 
3.835401 0.424981 -4.107147 
-0.567511 2.534053 4.613502 
3.481197 0.220878 -4.018074 
4.451903 -0.386470 -2.573391 
2.901359 2.719278 -1.051174 
-0.959756 -5.058211 2.278512 
4.397761 1.454139 -2.886172 
2.780571 2.455142 -2.274250 
0.131976 1.946526 -3.767585 
1.034859 2.604363 -1.450654 
2.075330 -4.207130 2.374609 
-0.386948 1.759553 -4.158909 
-4.321539 -0.826256 -1.029610 
1.438873 0.610402 -4.413660 
2.855669 2.271025 -2.995989 
0.194009 2.433872 4.880428 
-2.236634 2.073047 -1.249117 
-3.858157 1.010824 2.283779 
4.539598 -0.783633 -0.845128 
-3.481884 -1.883770 -1.580571 
2.474255 -1.142542 -1.993268 
-3.112324 1.131610 -4.010498 
3.822342 1.067825 -4.424979 
-3.708313 1.650556 -0.814531 
-3.074924 -0.757977 -3.398788 
4.517202 0.276390 -1.354267 
1.910383 2.526972 -1.914116 
-1.619267 -5.246059 3.999659 
-2.161374 -4.714177 2.636821 
-1.532325 2.277925 -1.127978 
1.101644 -0.098342 -3.514254 
-0.683741 -4.912225 2.136599 
2.111497 2.239386 -3.129707 
1.662571 -1.717566 -0.708469 
3.581230 0.565216 -4.244256 
-0.112673 2.122273 -3.200076 
1.039455 2.787179 -0.427930 
-3.976301 0.423109 -3.941326 
2.375819 -3.914481 2.211806 
-2.237824 2.059090 -1.332432 
1.964970 2.569928 4.252516 
2.035891 0.722907 -4.394227 
4.381713 -1.174236 -0.753723 
4.293356 1.777400 -1.604545 
-2.418708 -4.473757 2.648875 
-2.818628 -2.590888 -0.395592 
2.775039 -3.642766 2.441201 
-2.985907 2.048684 0.013921 
2.523289 -1.817500 -0.853545 
-1.163836 -2.870882 0.682668 
0.247349 -2.101831 0.282735 
-1.971376 2.206352 -0.811369 
3.203605 -2.932112 1.382571 
4.062142 -1.844012 0.987066 
-2.719448 1.678128 4.307294 
-4.072847 -1.513207 -0.625307 
4.176075 -1.633144 0.528111 
-2.077587 1.386677 -4.020614 
4.242215 1.894129 -1.995602 
0.702180 2.541364 -1.748887 
-2.196167 2.381186 2.037160 
-4.311553 0.957397 0.230869 
-3.671439 -2.233590 -0.785236 
-4.248866 1.103203 -0.593176 
-2.634511 -4.253220 2.929895 
-3.137473 2.058210 1.094886 
1.917494 -2.258600 0.059472 
-3.113185 1.834091 2.847118 
-2.692012 -4.144485 2.720038 
-0.901202 -0.976882 -1.610736 
-2.608148 2.150424 2.894442 
0.003400 2.827336 -0.033525 
2.682339 -1.205743 -1.949919 
-2.707537 1.722981 -2.326115 
-0.998512 -2.535084 0.404829 
3.544277 -2.398990 0.819027 
1.759936 2.853298 3.241029 
-3.640340 0.938832 3.133218 
0.775603 -1.397064 -0.998747 
-1.363018 2.642144 1.257488 
2.297860 -1.255364 -1.763627 
-0.368649 -4.695015 2.024909 
0.592446 -4.506812 2.078547 
3.612726 -2.536366 1.786419 
0.968360 2.267650 5.134654 
-1.970259 -4.652708 2.297389 
1.814148 -4.075213 2.113346 
1.999318 2.794230 -0.556326 
-0.331880 -5.865155 3.917464 
2.303719 2.262046 -3.039180 
-2.871203 0.143142 -4.639945 
-0.099951 2.956846 1.284947 
-3.844633 1.605534 -0.218312 
-2.750394 -4.016444 2.505210 
4.293171 1.765096 -2.699311 
-3.960156 -1.845689 1.936458 
-1.498489 0.040863 -4.379566 
4.047280 -0.971800 2.254432 
-3.458278 1.581128 -1.942187 
4.024136 1.934538 1.345287 
-4.023029 -1.174809 -2.581560 
0.774050 0.314436 -4.335612 
-4.391568 0.805322 -0.176025 
-2.226911 2.306214 2.880309 
-2.824853 1.882296 -1.395959 
1.827297 -1.738744 -0.737937 
-1.450081 2.554501 3.305624 
4.351876 1.280510 -0.655500 
0.315934 2.870844 0.170854 
-0.531116 -4.593357 1.959832 
2.131320 -0.316956 -3.178115 
-1.488032 -4.632589 2.050616 
-4.188050 0.405772 -3.541174 
-1.592248 2.022912 -2.331051 
3.550306 0.461413 -4.185978 
2.365057 -3.738478 1.891245 
-2.628869 2.252960 1.572113 
-2.687109 -4.064881 2.379010 
-1.255161 1.843449 -3.282520 
0.745932 2.838551 -0.074302 
3.702479 -0.082846 -3.682991 
2.642256 -3.169963 1.192819 
-4.215148 0.834343 0.942693 
4.096502 -0.602932 2.344837 
3.762396 1.017082 3.606699 
4.005188 -1.269355 -1.442973 
1.751629 0.718410 -4.406583 
2.435353 2.483741 4.087898 
0.354680 2.974531 1.600339 
0.672429 -0.588208 -2.517204 
-4.557678 0.352887 -0.303771 
-1.574180 -1.532942 -0.942164 
-0.190038 2.657634 -1.012160 
-4.582840 -0.131003 -0.127150 
0.172191 2.631057 4.391020 
-2.502865 2.129153 3.243514 
-1.238316 -4.529501 1.937276 
-1.300917 0.209093 -4.580636 
4.275659 1.636870 -3.215238 
1.745479 -3.898484 1.898470 
2.125806 -3.773151 1.780923 
3.993732 0.879956 2.937573 
2.597335 -3.484784 1.657828 
-2.828280 -2.699875 -0.188241 
3.612937 -2.513192 1.939397 
1.911903 -0.482003 -2.890060 
4.557134 0.108672 0.849527 
-2.814182 -3.906098 3.095512 
-3.085949 -3.323577 3.151736 
-2.542078 1.566445 -3.084136 
4.307212 1.534015 -3.342027 
1.172920 -1.260373 -1.387180 
4.204125 -0.360696 2.175290 
2.746100 -3.328377 2.878805 
-2.745184 -2.977756 0.342023 
-2.460579 -0.290037 -4.097405 
2.565006 2.955184 1.203512 
0.213064 -4.484747 1.999118 
-2.898325 -1.028343 -2.656089 
0.381404 -4.591127 2.077995 
2.806235 2.257266 -3.048283 
-3.427816 0.909620 3.822351 
-1.966837 2.096168 4.517056 
-0.151018 -4.412264 1.922942 
3.793124 -0.638186 -2.804550 
1.393501 2.579877 -1.566712 
0.499023 -4.172884 1.901876 
-1.260349 -4.315973 1.826983 
0.946891 -4.111406 1.950783 
-1.385349 2.640869 1.365739 
2.659285 2.509104 -2.039356 
1.732779 -3.723714 1.633381 
2.330489 -3.541361 1.542906 
-2.686722 -3.990103 2.205644 
-1.377145 2.365754 -0.903382 
-0.427864 -4.516541 1.935699 
-1.810561 2.503727 1.973968 
1.462814 2.464786 -2.184318 
2.812048 2.149457 -3.419617 
-1.746851 2.093993 4.881045 
-3.040200 -3.564526 2.410572 
-3.199048 -3.315488 2.329260 
4.254652 -0.272552 2.059584 
3.724203 1.278578 3.538502 
1.525054 2.327318 -2.806450 
3.902239 1.020408 3.147136 
-3.065429 1.803413 3.083606 
0.631017 2.047605 -3.540980 
-2.267330 2.329806 2.571742 
-0.269556 2.905684 0.871556 
2.415256 2.343186 -2.738478 
3.428678 -0.667976 -2.822352 
-3.420980 1.785684 -0.840183 
4.428311 -1.072468 0.640384 
0.552896 -3.931835 1.789439 
0.686117 -3.857119 1.747430 
-0.084633 2.572920 -1.486452 
0.641896 2.968810 2.100001 
4.127372 -1.019449 -1.874350 
-1.950939 -4.187873 1.777264 
2.264942 -3.485727 1.447079 
-0.574341 2.905981 1.612597 
2.179713 2.604007 -1.549130 
3.570103 -2.592801 1.576794 
0.349535 -0.551398 -2.577902 
-3.499509 1.746695 -0.872898 
-4.039161 -1.718786 1.785888 
-3.782943 -0.870343 3.333380 
4.438851 0.324496 1.583099 
0.524630 2.695842 -1.021525 
-3.230586 -3.250384 2.106736 
4.350759 1.219366 -0.518162 
-1.049544 1.010092 -4.826702 
3.686556 1.459918 3.468002 
3.827982 1.101703 3.342517 
2.335735 2.234568 4.613358 
0.133688 -0.618204 -2.400651 
-0.114978 1.151506 -4.789514 
-1.892933 2.477176 1.798465 
0.074007 -5.780575 3.558736 
0.010741 2.587732 -1.450084 
-3.066161 -1.007593 -2.793022 
-1.218356 -2.694178 0.469923 
-2.907738 -1.113816 -2.473629 
-2.786708 -3.999497 2.791943 
2.173555 -1.583906 -1.162855 
-3.405613 -1.327116 -2.361059 
4.241884 0.297393 -3.793356 
-0.953079 2.334471 4.943336 
-1.003475 2.256043 -2.078587 
4.242066 1.860142 -2.684598 
1.625946 -3.610330 1.508929 
-2.116442 -4.153086 1.800988 
2.039511 -3.474993 1.388201 
2.592500 -3.289629 1.332438 
1.233614 2.815094 -0.236676 
2.449788 2.915868 0.354582 
-3.914667 0.317818 2.623568 
-0.560368 0.982643 -4.829584 
-2.736361 -2.598204 -0.354786 
-4.072284 -0.335648 2.287937 
-2.571243 1.438304 5.117336 
-3.439948 -2.695781 2.884158 
-3.430374 -2.860708 2.608760 
3.251748 -2.955290 1.544990 
1.384279 2.936813 0.892981 
4.263423 -0.043417 2.122395 
-1.981162 2.034380 -1.817145 
4.410473 0.665078 -1.162274 
-2.130313 -1.943912 -0.799099 
-1.223735 2.699594 2.349899 
-4.542247 0.472784 -0.970494 
4.133279 0.940642 2.461352 
-2.427006 -4.531480 2.939595 
-3.933866 -1.959162 -0.534899 
-3.223986 0.725153 -4.497377 
-3.017829 2.106922 1.147523 
-4.207819 0.505023 -3.366356 
-3.489987 -1.439773 3.701716 
-1.323579 2.149714 -2.138186 
-3.015683 -0.631622 -3.646773 
-0.872131 -4.119890 1.768437 
0.628229 1.226913 -4.697389 
-1.271499 -4.000946 1.656080 
-1.454098 -3.964298 1.606448 
1.436763 -3.548645 1.479521 
1.467018 -3.516593 1.447697 
-1.678778 0.725619 -4.840632 
0.675070 2.501771 -1.923277 
-0.718218 -2.627656 0.612668 
-2.470046 2.126026 -0.476911 
3.444371 -2.599267 1.136979 
3.506943 1.110273 -4.487979 
-0.419601 2.558766 -1.335041 
4.338289 -0.687134 1.552933 
-4.233373 1.060209 0.516841 
-4.196868 -0.611654 -3.221767 
-2.006649 1.958110 -2.119448 
-0.279785 -0.502850 -2.773634 
2.693761 -0.356187 -3.173357 
4.335976 0.275670 1.950461 
4.270035 0.882512 2.045220 
4.401749 0.828636 -3.712664 
-2.860424 -2.641810 -0.305949 
3.588242 -2.484983 1.204447 
-3.045062 1.526213 3.903470 
-2.409348 -1.447012 -1.515402 
-2.484675 1.740228 -2.469436 
4.563117 -0.021490 -0.531072 
1.113862 1.981830 5.414146 
1.397040 2.204144 5.117970 
1.865392 -0.314943 -3.155018 
0.566724 2.337130 -2.617284 
0.827086 2.536483 4.594410 
3.192422 2.731216 1.982622 
-2.003295 -0.442931 -3.679653 
-0.147480 -3.746855 1.672325 
0.158058 -3.674375 1.651750 
-2.007741 1.956320 4.896544 
0.757392 -3.652127 1.623628 
-1.468980 -3.907553 1.565507 
0.074708 2.811712 -0.177536 
-1.631339 -3.837437 1.493377 
0.259147 2.793959 3.809305 
1.995152 -3.381824 1.291577 
-2.109409 2.279213 -0.016869 
2.571260 -3.078578 1.049806 
2.458872 2.624080 -1.481251 
3.477291 -2.553932 1.095848 
-2.403886 -4.219171 2.098340 
4.153716 -1.494603 1.311130 
-3.940224 -1.462810 -2.004413 
0.368117 -1.665607 -0.357889 
1.631504 2.361755 -2.682541 
-2.303798 -0.264401 -4.091671 
-3.587628 -2.378747 2.741834 
-3.727909 -2.149562 2.493069 
1.806556 2.870510 0.082933 
4.380305 0.523907 1.796435 
0.516069 1.695446 -4.342789 
-1.157884 2.698688 1.044245 
3.510198 1.868420 3.402170 
-0.471655 -0.430530 -3.074553 
-0.974039 1.748810 -3.890399 
0.448774 -0.291218 -3.192375 
-2.957082 -3.479298 1.730652 
1.794053 2.954081 0.971719 
-0.238239 2.653140 4.339154 
-4.325623 0.432967 0.904035 
-4.327991 0.920196 -0.991357 
0.891235 2.361104 4.982795 
1.978017 2.508000 -2.027920 
0.347325 -1.588514 -0.487077 
0.106014 2.570720 -1.557042 
0.941843 2.782304 -0.464221 
-1.551266 -3.331778 1.038221 
-0.991131 -3.769579 1.567574 
-2.336182 -1.061186 -2.188090 
4.257658 -0.483505 1.956552 
1.277983 -3.446664 1.421302 
-2.102979 -3.590441 1.254964 
-1.395386 1.731729 -3.513633 
3.248745 1.367079 -4.514022 
3.153644 0.267504 -4.105185 
3.267682 -2.709354 1.073006 
-3.296653 -3.084097 1.575593 
-2.771436 2.204079 1.493057 
4.196631 -1.534540 1.005567 
-1.318085 -1.591235 -0.753461 
-3.326958 0.970698 4.063911 
-3.097996 -3.342707 3.075045 
1.030050 2.246249 -3.017120 
-3.781046 -1.780250 2.733687 
-1.491329 -1.076346 -1.620711 
-2.979816 -1.762325 -1.536239 
-4.112380 -0.543032 2.185281 
-3.268494 1.993553 0.673461 
4.238098 1.890277 -2.505120 
2.305092 -1.689853 -1.018905 
3.394502 2.135824 3.185030 
4.155346 -0.129876 2.411668 
3.883105 1.616376 2.558176 
3.215445 -3.111806 2.049770 
1.628390 2.426987 -2.403528 
1.935803 -2.398040 0.237685 
0.193786 1.941812 5.618897 
-1.297313 -0.735908 -2.480725 
-1.670588 -5.132557 4.119024 
-3.686332 -2.181508 2.614201 
1.202918 2.710918 3.995059 
-3.001846 -1.061746 -2.642771 
-0.425416 -3.487288 1.481457 
0.285808 -3.437715 1.523132 
-0.913982 -0.751746 -2.199733 
0.404954 -3.318666 1.445330 
0.776865 -3.300882 1.411294 
-1.804508 2.192466 4.464019 
1.398137 -3.266606 1.272421 
-2.537834 -3.549358 1.321303 
-2.888406 -3.382536 1.371385 
2.477641 -3.035810 0.974045 
2.934439 -2.793578 0.885778 
-2.915990 -3.308365 1.234535 
2.679326 -1.501909 -1.453477 
-1.452364 1.542294 -4.101809 
4.254056 -1.253809 1.237434 
4.470829 -0.197360 1.278569 
-1.982064 2.421556 1.100656 
-2.584482 1.966034 -1.321759 
-3.750161 -2.334913 1.991820 
-3.921488 -1.722873 2.264201 
1.684228 2.740722 -0.797314 
-0.024950 -0.257553 -3.419367 
4.328042 -1.266147 -0.744685 
2.004263 -0.688240 -2.569786 
-4.109742 0.648265 -3.493326 
2.336757 2.659031 3.694957 
-2.066998 -2.723249 0.096722 
4.464313 0.887802 -3.370850 
-2.654728 -1.393382 -1.765928 
4.008287 1.582175 2.191775 
4.020644 1.707750 1.949285 
1.788686 -0.573985 -2.719656 
-3.889800 -1.922758 -1.103976 
-4.147777 -1.265212 -0.735379 
2.632718 2.053418 -3.756766 
0.633708 2.492517 -1.963410 
-2.516527 -1.098074 -2.227218 
-2.488051 1.173685 -4.342452 
0.551209 -0.312553 -3.124763 
-0.117636 1.058195 -4.806205 
2.938693 -0.173388 -3.459830 
1.158597 1.985210 -3.791860 
-1.175387 -3.414535 1.235191 
0.877678 -3.100681 1.245036 
-1.665237 -3.418710 1.102014 
-2.583821 2.103113 -0.431446 
-2.023016 1.473999 -3.783371 
-3.031396 1.579280 -2.629725 
2.123738 -3.086880 1.002236 
1.748679 -0.872155 -2.207067 
3.552321 2.566415 -0.824189 
-3.178943 -3.105181 1.164402 
-4.063539 1.216265 -1.722531 
3.458460 -2.590260 2.315412 
4.475967 -0.744193 0.903911 
4.481693 -0.438380 1.111955 
0.756294 2.965185 1.560540 
-1.450409 -2.649615 0.310820 
3.971062 -0.391899 2.687221 
-3.892542 -1.363109 2.720778 
0.860542 -0.583378 -2.551844 
-3.675388 -2.579657 1.356857 
-1.824576 -1.030878 -1.907406 
4.303982 1.185237 1.590085 
-1.574427 -3.208798 0.891247 
-3.710907 1.729393 0.483964 
4.381036 1.306623 -3.296110 
-4.309676 0.258024 -3.247273 
1.181638 2.652034 4.208269 
0.513064 -5.251910 2.614859 
-2.650678 -1.481905 -1.638869 
3.125570 2.819313 0.714425 
-1.191942 -1.047368 -1.548366 
0.848512 2.693415 -1.013656 
-3.737899 1.511249 -1.541838 
0.766378 2.559269 4.540092 
-1.490855 -0.459282 -3.459266 
-0.650201 2.881481 2.083787 
1.046340 2.698739 4.068911 
-1.082443 2.731339 2.823631 
-3.530941 -2.742479 2.276058 
1.077044 2.920017 0.678834 
-0.843375 -3.429767 1.344557 
-0.565274 -3.271327 1.283586 
-0.113456 -3.107406 1.232347 
2.101303 2.682488 -1.175013 
0.573271 -3.021514 1.196883 
2.238867 1.311845 -4.539916 
-2.013175 -3.358982 0.967576 
1.462376 -2.994547 1.034333 
-2.231070 -3.284353 0.844407 
-2.198631 -2.543358 -0.201064 
4.427442 1.112808 -3.241710 
3.162052 -2.498985 0.576198 
-1.165612 -0.197067 -3.922063 
-3.259009 -3.016720 1.075261 
3.989103 -1.891098 0.412341 
1.214747 2.764868 -0.576470 
4.535497 0.038344 0.981155 
4.312173 -0.413769 -2.761714 
3.893242 1.407580 2.830210 
3.165894 2.530457 2.846680 
3.612535 2.406630 1.772635 
-0.764314 1.946427 -3.418606 
1.048418 2.222091 -3.097186 
4.483437 0.596699 1.124511 
-4.164993 -1.163841 -2.318910 
-0.625844 1.217375 -4.754523 
-0.395168 2.929315 1.379528 
-3.312201 1.633056 2.902868 
2.636623 2.864678 2.651454 
1.455062 2.770946 3.693959 
1.353858 2.785161 3.642194 
1.765045 0.068035 -3.759581 
-4.177670 1.174243 -0.969599 
-3.304933 -1.015000 -2.873054 
-3.722382 -0.926695 -3.134629 
0.876416 2.808278 3.637236 
4.610776 -0.275010 -0.367048 
-2.045440 -0.616052 -3.309248 
0.072624 2.537373 4.645604 
-2.802426 -1.434963 -1.810182 
0.279614 2.632988 4.379647 
-1.733246 2.517689 2.391355 
2.954218 2.871360 1.358445 
-1.229915 -3.383726 1.189424 
-0.203364 -1.943113 0.079766 
-0.441775 -3.164070 1.218076 
-0.883196 -0.411763 -3.319013 
-1.054878 2.765249 2.124442 
-4.006356 1.116912 1.388842 
1.214763 -2.933273 1.036982 
-1.800548 -3.278517 0.907928 
1.596156 -2.876272 0.889522 
1.951983 -2.826746 0.758799 
2.346865 -2.770532 0.656432 
2.562473 -2.687690 0.574551 
3.173753 -2.443411 0.479234 
-0.825694 1.640067 -4.292874 
-3.439276 1.813527 1.779674 
-2.989075 -1.379211 -2.019494 
4.421749 -1.143436 0.482958 
1.379088 -0.002319 -3.661038 
-3.113029 0.495384 -4.638838 
3.853601 -1.383602 2.406613 
-0.458877 -2.036582 0.108541 
2.045996 2.526825 -1.934388 
-4.083807 -1.681887 1.603613 
-4.071202 -1.420529 2.008153 
1.146793 2.495743 -1.982058 
-2.851771 -3.516947 3.463392 
4.255322 1.479573 1.277029 
2.044911 2.226939 -3.176604 
-0.510729 -0.785568 -1.988181 
2.555246 2.881001 2.684824 
2.822457 2.807614 2.594871 
1.268407 2.815735 3.506516 
3.417285 2.546437 2.065545 
1.198153 2.960489 1.420906 
3.384226 2.607345 1.919592 
-2.902914 2.070390 -0.006798 
4.167011 1.373412 1.930969 
4.572608 0.640706 -2.380213 
3.913026 -2.009527 0.633385 
-1.568252 2.227709 -1.355398 
-3.926798 1.129128 1.736147 
0.496583 2.753324 3.945257 
-3.319186 1.425539 3.370661 
-3.711457 -0.585009 3.594247 
-3.503746 1.832529 1.285460 
-3.971129 -0.728744 2.654305 
-0.998344 -3.219266 1.105972 
-1.320804 -5.434021 4.144899 
-1.024580 -4.789400 2.064382 
-0.074440 -2.893306 1.040953 
0.583086 -2.775198 0.956038 
0.904045 -2.686758 0.834561 
1.372852 -2.741598 0.801816 
3.174865 -1.170795 -2.045042 
-2.144427 -2.256631 -0.499680 
-1.597436 1.864495 -2.850827 
3.599119 1.966483 2.900455 
2.746411 1.820787 -4.294315 
-2.702723 -2.121169 -1.004637 
0.693020 1.321829 -4.663206 
2.195355 2.751595 -0.849173 
3.307515 2.720589 -0.266349 
-1.958169 -0.292122 -3.940361 
-3.386825 0.992976 -4.044738 
0.604791 -5.369056 2.846259 
-2.377198 2.281760 0.744785 
1.885724 2.289806 -2.956484 
-1.837064 -2.016538 -0.552596 
-1.035783 2.597983 4.061219 
-4.163454 -1.451118 1.589374 
-4.053818 -0.961185 2.357604 
-4.038823 -1.893646 1.104937 
2.719726 -0.826714 -2.507440 
0.529056 2.670732 -1.153612 
4.142526 -1.077863 1.899566 
-1.077235 -5.502468 3.170748 
3.999152 2.154294 0.321827 
-0.276328 2.048936 -3.378940 
-0.078698 -0.823554 -1.886757 
2.871433 2.841062 2.271610 
-3.211981 0.139768 -4.556810 
1.983531 2.751526 -0.807792 
-1.561838 -1.387168 -1.127685 
-2.863222 1.715552 3.887237 
2.062330 -0.436080 -2.982913 
2.101375 -0.523471 -2.849407 
0.032484 2.768791 3.940637 
3.714471 0.968540 -4.426931 
1.232439 -1.526049 -0.914118 
-2.963050 1.512790 4.140319 
3.282097 2.038563 3.664259 
-2.380982 -1.590629 -1.320229 
-0.386873 -2.893039 0.973034 
-0.182519 -2.780625 0.910064 
0.737464 -2.690937 0.858757 
2.666936 0.279781 -4.131205 
1.446837 -2.733736 0.773938 
-2.591883 -3.215911 0.766261 
1.871157 -2.596663 0.502992 
2.187808 -2.475194 0.286206 
2.698552 -2.437800 0.218666 
1.309868 2.830809 -0.124023 
-2.728190 1.383015 -3.573173 
3.373986 1.826267 3.802040 
-3.712309 -2.516925 0.946330 
-2.496102 -0.555289 -3.613874 
-4.163294 0.759677 -3.061724 
4.425577 0.644053 0.637208 
4.007124 2.168818 -0.216244 
1.003340 -5.086763 2.721754 
2.108454 -0.208998 -3.341625 
-3.923442 0.637042 -3.888205 
-1.342680 2.529402 3.818014 
-3.973397 -0.588623 -3.527803 
-4.153074 -0.677745 2.061332 
4.380839 1.131424 0.754646 
0.039564 -4.840568 2.151855 
2.653094 2.605401 -1.575118 
-2.709257 2.080904 -0.351252 
1.389336 2.861028 3.232195 
2.015845 2.938391 2.680266 
1.245521 2.939335 0.942975 
0.844191 2.879220 3.201382 
-1.464824 2.229490 -1.511873 
4.510042 1.064691 -2.344793 
3.736579 1.869231 -3.760645 
-1.352198 -0.505922 -3.272757 
-3.894271 1.279078 1.556606 
1.212023 -0.041876 -3.605581 
-2.609871 -0.891491 -2.831110 
-2.334077 1.417490 -3.744666 
-4.109711 1.314279 -0.245479 
1.387419 2.775669 -0.525194 
3.464248 -2.754793 1.900473 
-3.120853 1.703270 3.250898 
-0.374293 -0.573126 -2.579317 
-1.601498 -2.905999 0.529680 
-1.410218 -2.846809 0.547460 
-3.703978 0.110536 3.462055 
-1.865466 2.311747 -0.273081 
-0.486174 -2.603906 0.669444 
0.442627 -0.900207 -1.827523 
0.739814 -2.569584 0.731702 
3.618950 1.486319 -4.396894 
1.239286 -2.508407 0.568864 
0.850108 0.194345 -4.124073 
2.084371 -2.451348 0.271650 
2.180115 -2.460279 0.267071 
2.409352 -2.347746 0.065464 
1.219059 0.583297 -4.442676 
3.121199 -2.150610 -0.173957 
2.135914 -1.007680 -2.099102 
-2.897322 1.873065 3.327961 
-3.944886 -2.059784 0.699794 
-2.905888 -2.983672 0.405789 
2.079272 -0.261707 -3.258169 
1.824212 2.835318 -0.208153 
-4.433224 0.754404 -0.674506 
-3.750342 1.614244 -0.848219 
-3.938566 -0.443833 2.746530 
2.349069 1.320107 -4.539889 
1.283978 -1.916519 -0.211710 
-4.314624 -1.020808 1.308383 
0.631624 1.868116 -4.009879 
0.084386 0.332905 -4.552434 
-2.232324 2.108441 -1.020380 
2.046107 -1.385537 -1.464852 
-2.821744 2.164945 0.889596 
4.561674 -0.330881 -2.150653 
4.594751 0.066403 -2.315958 
1.979458 2.966395 2.420396 
-2.992983 1.396174 -3.341590 
4.574619 0.582182 -2.469775 
2.541571 2.963499 1.837269 
2.645188 2.945437 1.634156 
0.134988 2.640124 -1.248687 
-4.138277 -1.266745 -1.207454 
-4.051049 -1.577991 -0.710253 
-0.491926 2.787277 3.714000 
-2.220263 1.505118 -3.526825 
3.189374 2.674291 2.305962 
-0.173282 2.830891 3.619040 
0.307868 2.891630 3.235999 
-3.150794 1.988481 2.021853 
-3.783785 -0.071323 3.209374 
-2.700383 -2.892858 0.178836 
-0.631985 2.281822 -2.373440 
-3.147747 1.570274 3.538507 
3.251485 2.003325 3.782592 
-0.525113 -2.506155 0.562599 
0.656887 -2.488333 0.657055 
-2.678412 1.410772 -3.516949 
-0.093002 2.809216 -0.089836 
-0.885432 2.723793 3.597220 
-0.103196 -3.946715 1.770145 
3.920769 2.013860 1.575729 
-2.602319 1.994782 -1.117341 
-2.357676 1.240498 -4.254116 
-1.429482 2.073884 -2.318050 
-3.945381 -0.623300 -3.507154 
2.689699 2.829309 2.735309 
3.000173 -3.108810 1.408601 
4.578679 -0.151500 0.147198 
-3.122622 0.664114 -4.578410 
-4.199501 0.929052 0.886448 
-2.525312 0.742257 -4.741055 
0.634765 -0.960709 -1.765355 
-3.079717 1.555954 3.734217 
-2.774373 1.922595 -1.250751 
-0.466653 2.695723 -0.497771 
3.737122 -1.266562 -1.659224 
-1.966033 1.643524 -3.230049 
-1.142039 2.266038 -1.836916 
3.332675 -0.669562 -2.813517 
-2.307986 -0.202397 -4.186750 
1.128219 2.909467 2.904583 
1.595613 2.965702 2.316466 
1.114103 2.575888 -1.580315 
0.790832 2.915489 2.908167 
0.454302 2.913622 3.028025 
2.276428 2.989294 1.886877 
-4.548355 -0.198838 -2.403269 
-1.064082 -1.533293 -0.725539 
1.187911 -1.600418 -0.754688 
-1.078628 -4.797812 2.077193 
4.533097 -0.489852 -2.047549 
-1.254459 2.210250 5.056108 
0.941020 2.921491 0.670868 
-1.422376 2.363927 4.452131 
-1.158975 2.415827 -1.030718 
-0.105593 2.892500 3.231147 
-3.211546 -2.838604 3.375278 
-4.627264 0.159909 -0.735587 
-2.436044 2.307606 1.438514 
-1.607006 -2.762036 0.361404 
0.414824 -3.858830 1.742989 
-0.611920 -2.358719 0.387221 
0.764152 2.557770 -1.676852 
0.572145 2.859806 0.075697 
1.140736 -2.313559 0.368276 
1.175538 2.059414 -3.594828 
-2.624312 1.899997 -1.617115 
2.037284 -2.276005 0.043923 
-3.671595 -2.468169 0.218168 
3.077143 -2.044958 -0.403203 
1.533473 2.347610 -2.731661 
-0.335824 -3.859375 1.715327 
-1.454947 -2.037448 -0.324182 
4.526992 -0.827425 0.453530 
4.532996 0.932087 -2.328165 
4.377430 0.919002 0.374214 
2.972996 -3.352542 1.974008 
3.341478 2.058737 3.495159 
-2.551121 1.346385 -3.825266 
1.388122 -0.920434 -2.034661 
-2.552039 -0.633526 -3.457026 
-4.139360 -0.189140 2.015797 
-4.159704 -0.202152 1.940442 
-4.232660 -0.274922 1.678683 
-4.019849 -0.291208 2.455329 
-4.391618 -0.854572 0.788303 
0.694384 0.459073 -4.524474 
1.730668 -1.206226 -1.652652 
4.443911 0.094416 -3.185221 
1.457302 2.943166 2.612883 
0.973215 2.930600 2.712142 
-4.618627 -0.351138 -0.933983 
3.531548 -0.971397 -2.345577 
0.307811 2.930408 2.914707 
2.076698 2.989779 1.744951 
2.512255 2.934817 2.388449 
-2.145287 0.826794 -4.788011 
4.600278 -0.318387 -1.816606 
-3.553905 0.779422 -4.172633 
-1.230790 1.187524 -4.722548 
-0.667494 2.793633 3.446529 
-3.505063 0.995360 -3.918687 
3.811698 -0.364775 -3.243360 
-1.277157 2.504320 4.097168 
-0.202587 2.921773 2.962103 
3.162735 -2.670594 0.883335 
-3.042767 2.051360 0.240466 
4.480712 0.937974 -1.820548 
4.133576 -0.029787 -3.530996 
-4.162510 0.845732 -2.830315 
-4.631971 0.146878 -0.846974 
-0.895941 -2.288519 0.199797 
2.598480 1.313772 -4.531570 
-2.692016 1.436517 -3.419123 
-1.674501 -3.243191 0.900083 
-3.437994 -0.186966 4.271842 
1.496844 -2.079973 -0.040066 
3.668880 -0.858380 -2.490898 
3.483679 2.621190 -0.447468 
2.764201 -2.103092 -0.368999 
3.218183 -1.899542 -0.633371 
0.956241 -5.167508 2.797463 
4.102233 -0.269545 -3.206694 
-0.710036 -5.676271 3.344625 
-4.185124 1.092395 -1.535860 
-1.895362 2.215791 4.207136 
-2.488375 -1.597203 -1.385515 
4.298409 1.629091 0.108913 
1.784305 -0.621429 -2.638903 
3.646784 2.398880 1.648040 
1.574463 1.608511 -4.484572 
-0.570068 2.769467 0.148803 
-1.304397 0.071368 -4.417489 
-0.881033 2.761429 0.732598 
2.492337 -0.677152 -2.674804 
-4.060938 1.354637 0.577582 
2.571011 2.905472 0.267231 
2.627009 2.948392 1.826942 
3.605033 2.552515 0.461602 
2.364892 2.367112 -2.653263 
0.621767 -0.825824 -2.021848 
1.355424 2.969475 2.073602 
0.492590 -1.535454 -0.629610 
1.520985 2.975421 1.849732 
-3.732746 1.131035 -3.357855 
1.906094 2.984220 1.592543 
4.091453 0.364838 -3.958909 
-2.738750 -0.838763 -3.032799 
-3.236512 -3.146939 1.573637 
3.955549 -2.000183 0.900438 
-2.697880 -4.103693 2.554366 
3.622248 -2.438210 2.079655 
-1.133026 2.712542 2.820139 
1.427348 2.670500 -1.133371 
-1.541950 2.333166 4.376602 
-0.403769 2.898420 2.970350 
-3.077601 -2.640168 -0.321137 
-0.061308 2.419175 -2.144482 
-0.645892 -3.848509 1.673890 
-1.381712 -0.878532 -2.054473 
0.370874 -2.462461 0.657442 
-1.443578 -2.393375 0.041793 
-4.241693 0.972019 0.656454 
-0.748539 -2.216372 0.190961 
4.547897 -0.643726 -1.385308 
4.516417 0.678531 -3.094428 
0.334047 2.559887 -1.646558 
-4.517488 0.119906 0.247022 
-2.581296 1.217291 5.378761 
4.592587 0.404064 -2.347721 
2.659206 -1.978994 -0.578067 
-1.435416 1.608884 -3.900685 
0.325544 -1.297345 -1.016312 
0.072237 2.377539 -2.359808 
-0.246784 2.944488 1.304872 
-1.711428 2.537601 1.874777 
0.768145 -4.316494 2.019086 
-2.763036 -3.980774 2.444258 
4.052245 -1.208080 -1.540694 
-3.492550 0.620437 3.909326 
-3.217732 0.849747 4.518547 
-3.926140 0.024766 2.688641 
0.762608 -1.409901 -0.969529 
2.929116 0.067025 -3.839791 
-4.350817 -0.149814 -3.273597 
-4.395676 -0.363391 1.023926 
0.978288 2.964537 1.695176 
-0.197112 2.802811 -0.056097 
-1.678745 2.411911 3.676238 
-3.727227 0.671303 3.070109 
-0.680621 -1.650993 -0.435941 
2.558837 2.943612 0.837953 
-0.671102 2.381951 4.935991 
1.424766 2.970865 1.684024 
1.613140 2.976731 1.721658 
-0.061376 2.954134 2.585183 
1.691284 2.972317 1.371300 
-4.357535 -0.936750 1.075790 
-2.843598 -0.265012 -4.226440 
-1.632347 2.563595 1.680176 
-0.304464 -0.134119 -3.857447 
-0.124096 2.961303 2.102041 
-3.266541 -0.257021 -4.237999 
-1.435253 2.220455 -1.615262 
-3.593090 1.677924 -1.008470 
-0.676917 2.845711 2.962617 
3.053923 2.613799 -1.463038 
2.603395 -0.127305 -3.493226 
-2.113845 -4.854891 3.028217 
1.070003 -0.605250 -2.542213 
2.325333 2.489722 -2.130516 
-0.942131 -2.084393 -0.030223 
1.755061 2.323881 -2.829487 
-0.016739 -1.943717 0.096478 
-2.696102 -2.706454 -0.153261 
3.555689 2.573445 -0.546679 
0.887499 -1.846299 -0.200809 
-3.235322 -2.635989 -0.268642 
0.296467 2.849211 0.015997 
-1.343841 2.249772 4.881537 
-2.675128 2.234358 1.764418 
-2.260108 -0.283475 -4.048016 
-3.722540 0.102643 -4.254455 
1.775354 2.883385 0.205866 
-0.196440 -0.283691 -3.409219 
4.619208 -0.294242 -0.523779 
-1.790965 1.573487 -3.650094 
-0.728059 2.841275 1.126647 
-1.058205 2.745482 2.700077 
1.473116 -1.830673 -0.432179 
0.308000 2.579026 -1.562764 
-3.912473 0.469526 2.560710 
-3.894608 -2.088626 -0.198913 
-4.392633 0.750130 0.126545 
-3.753164 0.677862 2.979180 
4.221642 -0.952811 1.748284 
2.858628 2.631284 3.144246 
-0.845338 -1.397672 -0.852721 
-4.501132 -0.552774 0.251294 
1.105110 2.730945 -0.786040 
2.878397 2.887022 0.579244 
0.844298 2.958933 2.324296 
4.274418 -1.441146 0.585448 
0.850772 1.527183 -4.531161 
1.483163 2.971116 1.591871 
-1.530237 2.012733 -2.435652 
1.677700 1.471601 -4.545305 
1.907376 2.968482 1.169860 
2.099931 2.960442 0.902457 
4.261809 -0.180408 -3.211775 
-2.106919 -0.451535 -3.699618 
2.898438 2.453735 3.535453 
-0.588037 2.397961 -1.913058 
-1.621733 2.431720 3.703956 
2.303926 2.101301 -3.613233 
-4.122556 -1.390097 0.092204 
-0.726054 2.839642 2.882155 
1.697384 2.675291 -1.143591 
-3.077461 0.857564 4.830521 
-2.123722 -3.995719 1.655162 
-1.974666 -2.373533 -0.272853 
-3.824672 -2.272801 0.305939 
-0.687835 2.831385 0.905051 
-0.845068 2.823429 1.326019 
-0.782882 2.792748 0.764636 
-1.215145 2.704717 1.403662 
-1.335882 2.670377 1.654107 
-0.647053 2.893017 1.763360 
-1.214139 2.713388 1.596657 
-0.952160 2.795063 2.221900 
0.068454 0.234913 -4.447713 
-1.429591 2.570527 0.700654 
-1.740023 2.484378 0.918837 
-1.634975 2.517406 0.891291 
-1.746186 2.515933 1.390727 
-2.573401 2.225030 0.709092 
-2.226173 2.321187 0.718817 
3.139450 -1.278661 -1.854153 
1.483352 2.122153 -3.475873 
1.857304 2.122808 -3.534131 
1.796416 2.138641 -3.472080 
1.335044 2.112604 -3.475657 
0.671342 2.745514 -0.723367 
0.113677 2.760699 -0.548760 
-3.092335 -0.204633 -4.319594 
2.325215 2.135314 -3.492110 
2.504840 2.057984 -3.750160 
3.307930 2.285389 -2.839866 
3.853997 2.137782 -2.883491 
4.122152 1.770818 -3.384614 
1.461161 0.395489 -4.232278 
3.927929 1.913012 -3.414252 
2.322510 0.185317 -3.971395 
-3.953501 -2.062667 0.816305 
-2.250443 -3.333562 0.919396 
1.747494 -1.938612 -0.356893 
0.210593 -5.589908 3.075787 
3.517871 1.912783 3.288629 
0.698612 1.950839 5.532640 
-1.757899 -4.486390 2.005722 
-3.843960 -1.333340 2.903877 
2.572011 2.253258 4.376620 
-3.435410 -1.173096 3.868383 
2.938373 1.858380 4.412288 
2.097799 -4.544858 3.137194 
-0.047320 -5.846908 3.794707 
3.690516 -2.386596 1.920594 
-4.278659 -0.939708 -0.575205 
1.354682 0.411699 -4.269641 
-1.870955 -5.054340 3.088612 
-0.498483 -5.740729 3.431977 
-3.320798 -2.071028 3.663482 
-4.066930 -1.524576 -1.535516 
2.484478 2.475998 4.051155 
0.306304 -5.852618 3.955846 
-0.148378 2.621621 4.435041 
-2.130491 -4.303332 1.963385 
-3.624035 -2.643116 1.623180 
-2.751555 0.053331 -4.572922 
-3.135867 0.160026 -4.594617 
-1.259885 -5.010880 2.332355 
-2.755379 -0.219242 -4.273353 
-3.561882 -2.240112 2.992011 
1.855597 2.477660 4.531865 
0.029221 -5.069191 2.307683 
-1.397161 -2.599326 0.282152 
-1.427944 -1.722663 -0.641352 
1.140525 1.997167 5.394018 
0.091381 2.138846 5.419803 
-3.631942 0.585857 3.455560 
1.712919 -4.803983 2.927172 
-2.613572 -4.143986 2.347185 
4.459808 -0.237086 -2.767074 
-0.288096 0.790431 -4.808918 
4.604539 0.271470 -2.208915 
-2.891078 1.316833 4.673077 
-2.723684 -3.560285 1.494102 
-3.900766 -0.506305 2.884689 
3.696856 -2.158519 0.483459 
-3.613785 1.654597 -1.090936 
-4.215873 -0.811049 -2.910281 
-3.902021 -2.069558 -0.224681 
-2.148807 -2.163479 -0.597312 
2.365804 -0.958025 -2.244587 
-4.308967 -0.757305 -2.829929 
-2.759951 1.520681 4.571326 
3.103181 -1.918310 -0.642444 
-4.062465 -0.765810 -3.216393 
-4.321988 0.822527 -1.962028 
3.961728 -1.861984 0.157823 
-3.651171 1.775125 0.286423 
2.167655 -0.894561 -2.284221 
-3.720139 1.316366 -2.749038 
2.044085 -1.150705 -1.844542 
-3.613116 1.247946 -3.213903 
-3.203129 -1.910996 -1.498416 
-2.390099 -3.828641 1.589115 
4.307767 0.705970 -3.980262 
-4.009716 1.002215 -3.033507 
-3.695518 0.397213 3.343704 
-3.897134 -1.838549 -1.279221 
1.674935 2.656786 4.102958 
-4.355827 -0.379061 -3.138726 
-3.899799 1.411635 -1.461255 
-2.213252 -3.855433 1.550001 
-0.030886 1.689755 -4.341356 
4.203045 -1.079010 -1.669449 
3.935014 -2.047876 1.217098 
2.625659 -3.797044 2.400714 
3.887014 -2.110078 1.063048 
-3.647518 -2.522418 2.121933 
4.514520 -0.716509 -1.515296 
-1.330412 -4.029888 1.663143 
3.458176 2.534153 -1.474671 
4.087546 -1.624571 -0.255762 
2.879113 2.542379 3.345430 
-4.391764 0.419219 0.662699 
-2.674482 -1.619530 -1.487098 
-1.126889 1.585008 -4.257393 
4.089730 2.132358 -1.775179 
2.165774 -0.619046 -2.708424 
-2.771913 -2.167817 -0.996580 
-3.941924 -1.583398 -1.756742 
3.597770 2.498863 1.455183 
-3.968687 -1.900819 0.205555 
-3.167868 -3.041436 0.901684 
-2.927620 0.592404 -4.693846 
-3.982447 -1.983471 1.402721 
-4.541224 -0.533413 -2.061230 
2.068427 -1.543445 -1.196112 
-4.314779 0.864427 -1.787787 
-1.652311 -1.656751 -0.829047 
3.010205 2.785382 2.214465 
-3.977740 -2.026142 0.976365 
3.988761 1.559770 2.292565 
-0.661579 2.567365 4.493607 
-3.829937 -1.704240 2.636317 
-3.831531 -0.855456 3.158334 
4.573093 -0.089189 0.545685 
-4.067395 1.370687 -0.177649 
2.163234 2.842016 3.148045 
-1.529058 -1.701536 -0.714587 
-3.438829 0.205779 -4.470005 
3.317288 2.676974 1.809115 
-2.954248 0.852980 -4.538981 
-3.701584 0.822287 -3.980948 
-4.385781 0.806091 -0.098452 
-4.034786 -1.653835 -0.267495 
-2.980163 -3.665084 2.485776 
-0.630490 1.780962 -4.021622 
3.397554 -2.551952 2.415814 
-4.141537 -1.258204 -2.103352 
3.976498 1.140272 -4.356005 
-4.615335 -0.364420 -1.541656 
3.962118 2.180973 0.625697 
4.124784 2.045253 -0.621125 
-4.569100 -0.486823 -1.050890 
-2.401660 0.620062 -4.787592 
3.794692 2.404111 -0.848033 
0.773863 2.926114 0.692920 
-4.298965 0.207354 1.183717 
-4.009737 0.622934 -3.761351 
2.428316 2.581423 3.825899 
-3.773319 -1.648012 2.889364 
2.935783 -2.175103 -0.202444 
4.586556 -0.101995 -0.786459 
0.379863 0.562016 -4.693279 
3.617325 -2.284129 0.658707 
0.524815 1.757061 -4.239285 
-3.514469 1.816302 -0.336579 
-3.859757 1.587255 -0.343501 
3.206963 2.306448 3.291187 
-3.114863 1.891532 2.634426 
3.908287 2.095135 -2.947021 
1.714928 1.794787 -4.315655 
2.679294 2.632553 3.392077 
3.876992 1.164138 3.136423 
2.685982 1.238662 -4.526617 
-2.702650 -2.253774 -0.858601 
-3.997672 1.471325 0.354468 
-3.827588 0.582399 -4.044470 
-1.859424 -1.720920 -0.864451 
-3.365249 1.941452 1.187002 
4.016020 -1.786486 0.074890 
4.594062 -0.099595 -2.191880 
-4.010161 1.433620 -0.404721 
3.491976 2.622320 -0.275810 
-3.372169 -1.995121 -1.434376 
4.579572 -0.595322 0.404460 
2.923172 -1.312290 -1.805853 
3.283747 2.639364 -1.184528 
2.112881 -0.836236 -2.359046 
-3.577176 1.209077 -3.377144 
3.658585 2.401610 -1.957721 
-2.814189 0.802323 -4.638494 
-4.063691 -1.559265 -0.284305 
4.474809 -1.057129 -0.189139 
-3.794312 -2.334895 1.659166 
3.549554 2.227843 2.500847 
0.402399 1.569208 -4.508057 
-2.037093 -4.615321 2.297009 
3.367506 -0.769099 -2.677200 
-4.431426 -0.686966 -2.587626 
-4.546172 -0.507303 -2.094009 
3.632039 0.981414 -4.446744 
-2.320281 0.529899 -4.787492 
3.274600 2.218263 3.328768 
-3.692083 -2.342460 2.318624 
-1.702610 -4.856382 2.417035 
1.113187 1.587673 -4.478080 
4.585040 0.252214 -2.487931 
3.813864 2.004015 -3.350420 
2.952692 2.729644 -0.983556 
0.299682 -0.192731 -3.483557 
-4.253437 -1.136634 1.566164 
2.974391 2.785111 2.334868 
3.590350 -0.775346 -2.646124 
4.215500 -1.464569 -0.471019 
3.332867 2.710778 -0.216171 
-0.216886 1.680187 -4.368238 
-4.082552 -1.519630 0.114275 
3.551706 2.587252 0.826106 
3.938638 2.259764 -0.382211 
2.742637 2.923713 1.095846 
-3.361621 1.139010 -3.761550 
4.090851 1.244702 2.347334 
4.477522 -1.055823 0.081649 
-4.624453 -0.035283 -1.700734 
-2.649273 -3.151178 0.651501 
3.838321 2.095699 1.696928 
-4.068005 -1.653865 0.613662 
-4.437803 -0.673524 -0.997508 
-2.198790 -4.399464 2.140291 
-4.157473 -1.331563 -1.736904 
4.328174 -0.868452 -1.950780 
-3.994182 -1.897745 0.630124 
4.038052 2.150667 -2.228814 
1.389973 1.190283 -4.584566 
3.387171 -1.205418 -1.950086 
-2.987640 1.435058 4.227288 
4.138821 -1.381545 -0.996629 
1.845556 1.531317 -4.533061 
3.692071 -2.419797 1.575787 
4.190791 0.694388 2.404067 
-4.521453 -0.234654 0.364154 
4.242752 1.747778 -3.086183 
2.117669 2.853877 3.116704 
1.675826 2.012696 5.184101 
-4.485360 -0.557496 -2.556231 
-3.604526 -1.926612 -1.469026 
3.262442 -2.962236 1.592850 
-0.757260 0.466101 -4.741676 
0.913757 2.246699 -2.990662 
1.200134 -1.792612 -0.395814 
-3.934516 -2.013889 0.240759 
4.008162 -1.655488 1.755370 
0.016491 -1.708205 -0.240241 
-0.388617 -1.635290 -0.384416 
-4.222014 0.621962 1.143785 
0.576165 0.754646 -4.716063 
2.621073 1.495631 -4.525192 
-3.276440 1.946211 -0.061229 
0.824850 1.427912 -4.598976 
3.851107 1.258740 -4.417004 
-2.687747 -2.537818 -0.447167 
2.319636 2.464609 4.256242 
-1.615532 -2.272299 -0.172442 
2.074476 1.432892 -4.545174 
-3.764977 -1.465152 -2.165116 
2.761617 -2.369159 0.114808 
2.479131 1.750082 -4.411591 
-0.690558 -0.827094 -1.912422 
-0.353236 -5.495610 2.817553 
1.084039 2.525366 -1.825292 
3.251222 1.429341 -4.503743 
2.246287 2.546666 4.118254 
-3.927112 1.512198 -0.601719 
3.472140 2.291032 -2.722768 
2.542631 2.031884 -3.831673 
2.580072 1.116324 -4.505051 
-0.851161 -5.409670 2.796481 
3.733934 1.715318 2.917433 
2.392133 2.587833 3.849009 
-1.152816 -5.313540 2.795198 
4.298758 0.984950 1.855612 
4.059566 2.084071 -0.016979 
-3.713245 -2.524424 1.236728 
-4.638448 -0.086271 -0.963572 
4.235086 -1.376626 1.127017 
3.458971 1.585611 -4.367765 
-3.832374 -0.366343 -3.909894 
3.431298 -0.467883 -3.122452 
-0.696008 0.667622 -4.825459 
2.713387 2.882729 2.406929 
3.403851 1.889368 3.639679 
3.598330 -2.021860 -0.056518 
2.934027 2.567259 3.196123 
4.365810 1.057232 0.074805 
3.594059 -1.860993 2.515081 
2.583274 -1.344891 -1.701507 
4.225405 -0.258530 2.160439 
4.292892 0.392098 2.115426 
-4.130148 0.284746 1.832390 
1.435990 -5.270576 3.620174 
-3.734241 -0.267219 3.472085 
4.287107 0.954599 -4.003534 
-2.917298 -2.050162 -1.213535 
-4.606324 -0.342865 -1.781836 
-1.054527 1.940403 5.645057 
-2.013912 0.426430 -4.762766 
3.827800 1.498279 -4.281195 
-0.006552 1.959627 5.634267 
-4.492176 -0.596568 -2.394318 
-2.080383 -4.583156 2.289002 
4.266297 -1.299985 -0.945199 
2.989062 -1.839826 -0.823762 
2.612724 0.552727 -4.330400 
4.571993 0.124350 -1.544351 
1.333845 -4.856073 2.640827 
-0.225512 2.764655 3.963584 
4.471503 0.523136 -3.450224 
-3.488746 -2.623466 0.116166 
3.489750 -0.677507 -2.809349 
1.994496 -4.650590 3.123771 
-0.482353 1.046843 -4.812081 
1.164930 -2.049193 0.036565 
-4.442060 0.047107 0.671747 
-4.080678 0.059066 -3.851379 
-3.194212 -1.805043 -1.604808 
-3.350412 -2.810017 0.468013 
-0.058083 -2.070009 0.238926 
2.319869 -3.995582 2.286922 
1.893446 1.930741 -4.097793 
-3.613035 -2.493109 0.038415 
0.829349 -2.321325 0.446900 
3.974822 1.645264 2.203172 
-3.548764 0.501689 3.807120 
-3.965555 -0.840147 -3.201453 
-0.127829 -5.853527 4.746648 
-3.880567 -0.928081 2.951103 
-1.302089 2.460170 4.258183 
-3.664716 1.086258 2.900998 
3.926926 1.333495 -4.331228 
-3.366342 0.068677 -4.463744 
3.967488 1.566413 2.353291 
-4.539701 -0.155003 -2.486884 
-3.872234 -2.254075 0.992972 
-2.040356 -2.319923 -0.369557 
-0.469581 -5.609295 3.063346 
-1.839758 -1.271217 -1.428962 
3.795996 -1.904800 2.172458 
-3.376596 -2.446725 -0.611971 
-2.182072 -2.606689 -0.107498 
3.350410 -0.484828 -3.082430 
-1.116904 -0.762810 -2.259891 
-2.944230 -3.696311 2.958116 
-0.168632 -1.526471 -0.510802 
2.703732 2.132492 4.395829 
-0.005681 2.236991 5.280365 
0.803667 2.670688 4.196093 
-3.508546 0.503962 3.952310 
-3.561628 0.030472 -4.351448 
-3.677175 -2.300150 -0.546779 
-3.698383 -1.731217 -1.719586 
3.507192 0.685030 -4.328827 
3.054823 -0.803362 -2.599500 
2.222620 -0.140254 -3.451992 
-2.445188 -2.115584 -0.841802 
4.597804 -0.286610 -1.905990 
-0.620933 -5.718901 3.417901 
2.293936 -1.067190 -2.055974 
-4.000794 -1.718261 -1.215726 
-3.990612 -1.895503 0.587856 
2.674185 -0.542144 -2.898275 
-2.346053 -1.916093 -0.965475 
-1.520804 2.044433 5.245003 
3.681918 -2.276548 0.797715 
-2.348621 -0.383892 -3.909858 
0.401735 -0.270855 -3.250898 
1.056186 0.031846 -3.765474 
0.923572 0.091538 -3.914485 
-2.782593 1.249042 5.008246 
0.554271 0.314845 -4.413403 
2.251836 1.063630 -4.491736 
3.276761 -0.086796 -3.654188 
1.493570 -0.291266 -3.161258 
-0.518019 -0.454740 -3.017612 
1.131247 -0.017106 -3.660616 
3.136382 -1.672871 -1.107337 
3.083103 0.016764 -3.783765 
-2.595520 -0.913086 -2.766750 
-1.760699 -0.900137 -2.241921 
-0.246079 -0.800291 -1.931699 
-2.404173 1.436315 5.389410 
3.147092 -1.325673 -1.763772 
3.379119 -0.048735 -3.725543 
-0.048827 -1.008064 -1.502604 
0.539624 -0.863280 -1.926288 
-3.329194 -2.902318 0.784155 
2.255245 -0.046903 -3.593321 
0.001644 -0.616925 -2.401520 
2.548989 0.042748 -3.752612 
1.614187 0.183739 -3.945048 
0.562639 -1.667017 -0.411413 
1.287269 -1.602909 -0.784792 
-1.628301 -2.219710 -0.232670 
-0.413823 -0.204903 -3.711891 
0.062042 -0.098498 -3.824145 
-0.771724 -0.647398 -2.482336 
4.293808 -0.092018 -3.296680 
-0.641782 -1.297608 -0.965678 
0.440717 0.171119 -4.252014 
0.327911 -1.874615 -0.020662 
0.199596 -0.169761 -3.580751 
1.148368 -0.436490 -2.871889 
1.190185 -0.553742 -2.658790 
-0.407050 -0.491953 -2.849998 
-1.946276 -1.040684 -1.962978 
2.749300 2.289268 4.106247 
-2.979335 1.115607 4.770802 
-0.066968 -0.539088 -2.622566 
-1.840307 -2.209768 -0.363397 
3.492780 1.328865 -4.498192 
0.239262 -0.598811 -2.452936 
0.046224 -0.760774 -2.043591 
-0.115269 -2.934812 1.073650 
0.801116 -2.416557 0.559714 
0.945371 0.403320 -4.381952 
0.429075 -0.085643 -3.707268 
1.549134 -1.283010 -1.466552 
-0.045331 0.224842 -4.439799 
2.600023 -0.057134 -3.596683 
1.924860 0.226490 -3.999367 
1.321520 -1.754380 -0.509718 
-3.550629 -2.716318 0.799581 
0.123202 -1.275017 -0.998468 
0.456300 -0.867305 -1.896163 
1.209825 -0.478994 -2.797892 
0.835986 -2.155199 0.253163 
-3.964624 -1.908313 0.147584 
-1.121501 0.116589 -4.465770 
-0.250420 0.420749 -4.646047 
0.017788 -0.076211 -3.896193 
-0.438848 0.048466 -4.240388 
-0.441464 -0.179970 -3.786107 
-0.282865 -0.160933 -3.784339 
0.507646 -1.552639 -0.603113 
-0.527310 0.147794 -4.400651 
-0.841191 0.351682 -4.670682 
1.371275 0.465754 -4.322092 
3.658359 2.239149 2.094918 
1.913180 0.323325 -4.122549 
-1.309729 -2.059598 -0.227319 
3.441700 -2.705210 2.241292 
-1.664082 -0.456015 -3.534016 
4.515667 -0.976453 -0.062126 
-1.314839 -0.298449 -3.755483 
0.386406 -1.786096 -0.165291 
4.370527 1.558517 -1.562949 
0.226985 -2.277560 0.473378 
1.634058 -3.278332 1.237982 
1.280493 -2.102006 0.068545 
1.223995 -2.036113 -0.000862 
-0.213698 0.985109 -4.817352 
0.196462 -1.997748 0.162966 
-1.397488 -0.419810 -3.510716 
3.038934 -1.354652 -1.725976 
3.614929 -0.449752 -3.161949 
-3.752520 -0.175890 3.368738 
-3.518251 -2.787633 1.214973 
0.645026 -5.507313 3.139938 
-3.345311 -0.486404 -3.951378 
-1.990247 0.058326 -4.478715 
-0.587763 -4.997879 2.205413 
-3.019044 -2.522898 -0.556159 
-2.864595 -3.864210 2.735396 
-3.496979 -1.727578 3.538907 
1.770443 -4.835699 3.998191 
-4.287462 -1.004686 0.194689 
3.848270 -2.183657 1.326533 
-0.553159 -1.785687 -0.221134 
0.697234 -5.188163 2.644591 
3.715121 1.140183 3.685902 
2.115906 2.456430 4.444609 
-4.437673 -0.732404 0.028381 
-4.143006 -1.313025 -0.140468 
0.314174 -4.968756 2.291637 
2.948509 1.708948 4.507335 
4.426226 -0.539677 1.302725 
-2.301818 -1.012141 -2.294023 
-4.049703 -1.529084 -1.648723 
4.030896 -1.838962 0.377683 
-4.096949 -1.116147 2.146960 
0.260807 2.468186 4.800938 
-3.521209 -1.580753 3.590981 
-3.935565 -1.227693 2.651830 
-1.724321 -0.384702 -3.703725 
-3.160730 1.254208 4.123337 
-3.516366 -2.590420 2.733862 
-3.521286 -1.644978 3.551330 
0.617247 -5.617646 3.370978 
4.005423 -1.646516 -0.425519 
2.331449 -1.532497 -1.312497 
-3.209150 0.461382 4.745050 
-2.691669 1.926278 3.644549 
2.652038 -3.666032 2.914603 
-2.889841 1.094823 4.992355 
-1.090508 -1.969418 -0.220460 
-1.363928 2.081880 5.281587 
-1.095021 1.768983 5.840191 
-0.723826 1.834805 5.811399 
-0.354374 1.881311 5.751069 
-0.458153 2.153339 5.423530 
0.209379 2.207973 5.309722 
1.506596 -5.194819 4.152425 
0.795761 -5.768222 4.362857 
2.907263 2.306984 3.863702 
3.031269 1.884853 4.284328 
-3.182935 1.065370 4.340222 
2.793260 1.757400 4.617978 
-0.031525 2.731353 4.087082 
-3.663043 -1.569134 3.294581 
3.971865 -0.110472 2.811704 
3.820248 -1.793220 -0.355525 
-4.152761 -1.221675 -1.381962 
3.950343 0.027661 2.897681 
4.484809 -0.868778 -1.176665 
-2.461354 1.201773 5.550512 
-0.052807 -5.917502 4.554046 
2.001187 -4.353903 2.526934 
4.381477 -0.127017 1.671014 
-3.434217 -2.935185 1.816420 
-1.859945 1.842305 5.361276 
0.321127 2.687888 4.204958 
-1.542826 -5.244142 4.137024 
4.458714 -0.560632 1.156301 
2.129837 -4.481754 3.033878 
0.605770 -5.814354 4.609871 
-1.195168 -2.583342 0.363363 
-4.245152 -1.061765 0.080206 
1.244905 -5.458636 3.834725 
4.041896 -0.483570 2.513704 
3.784550 -1.718777 -0.585044 
-3.527128 -2.792427 1.586916 
3.365211 1.690091 3.986300 
3.615910 1.141005 3.942522 
-2.098879 -4.808764 2.780304 
-0.644812 -3.451814 1.411219 
2.320259 -2.846463 0.746488 
3.571599 -2.045085 -0.027999 
-3.776259 -0.997081 3.321708 
2.143300 -1.958899 -0.484160 
-2.706775 1.210243 5.198334 
3.287138 2.608431 2.262831 
0.820316 -5.587808 3.482302 
3.864804 0.148525 3.101744 
3.163516 -2.226477 0.011020 
-1.574452 1.662642 5.826525 
-1.884048 1.491362 5.828635 
-0.579627 1.837315 5.808985 
-1.041164 -0.992884 -1.610956 
4.240861 -1.491435 0.780779 
0.464975 2.727373 4.046762 
-0.402657 2.707872 4.148842 
-3.399330 -1.572397 3.749824 
-1.375646 2.201982 4.987497 
4.547624 -0.548359 0.706610 
3.808265 1.934353 2.239286 
4.293563 1.259541 1.524300 
3.886921 1.824399 2.177513 
4.054618 1.605210 2.005984 
4.310934 1.374031 1.178658 
3.757401 2.178536 1.848298 
3.414257 2.534369 -1.595805 
4.207920 1.766608 0.757269 
4.385564 1.088171 0.877125 
3.899394 2.305127 -1.379059 
3.785386 2.385276 -1.365107 
4.309743 1.549989 0.406846 
4.025290 2.080792 0.778684 
4.066423 1.983590 0.989898 
4.249836 1.738853 0.246869 
4.563268 0.269637 0.446398 
4.467854 0.301628 -0.051745 
4.409643 0.621906 -0.038137 
4.394907 0.705968 -0.108542 
4.295271 1.788800 -2.507996 
4.304064 1.664273 -0.458876 
4.431610 0.422029 -0.182468 
4.381819 0.790756 -0.455315 
4.351310 1.501336 -0.727708 
4.466809 0.366572 -0.908730 
4.376031 0.839143 -0.727806 
4.501575 0.235052 -0.783548 
4.351459 1.255877 -0.804146 
3.925688 2.243341 0.349835 
4.463646 0.464857 -1.281918 
4.354831 1.127456 -0.515537 
4.381155 0.801851 -0.848136 
4.606394 -0.478241 -0.864512 
4.580437 -0.000095 -1.307665 
4.456140 0.418653 -1.016201 
4.613311 -0.218838 -1.730012 
4.609785 -0.297333 -1.269923 
4.440004 0.831227 -1.510631 
3.851388 2.336442 -0.285662 
4.514770 0.521626 -1.653591 
4.598702 -0.191618 -1.089276 
4.410931 1.214686 -1.534893 
4.606928 -0.332643 -1.540543 
4.400021 1.330872 -1.496541 
-0.563211 2.351626 5.029725 
-1.344759 2.357887 4.576149 
-1.136028 2.604929 3.841945 
-0.424157 2.905373 2.856588 
-0.759385 2.700146 3.949946 
-0.724033 2.814774 3.145274 
-1.303864 2.518319 3.973680 
-0.827651 2.758046 3.446582 
-1.052316 2.728854 3.037669 
-0.919772 2.752847 3.244287 
-0.037594 2.949923 2.734705 
-0.953798 2.777492 2.810639 
-1.899744 2.330050 3.594489 
-0.577555 2.885265 2.621297 
-0.832532 2.826270 2.404550 
-0.987598 2.777423 2.445562 
-1.655530 2.529907 2.623253 
1.127343 2.950028 2.483509 
-0.103698 2.967390 1.944241 
0.150311 2.977712 1.684371 
1.749381 2.884077 3.082776 
1.214510 2.966566 2.124125 
0.575995 2.954129 1.085998 
0.500702 2.938287 0.797038 
1.388471 2.964162 1.417115 
-0.061803 2.884380 0.412280 
0.748720 2.880349 0.251531 
0.335642 2.885974 0.288417 
1.523540 2.954838 1.123825 
0.093259 2.824255 -0.098625 
1.660972 2.892908 0.338465 
1.907812 2.944841 0.789269 
1.916901 2.893560 0.246592 
1.596203 2.890276 0.332321 
2.329063 2.933773 0.514633 
2.394251 2.973831 1.346881 
1.947604 2.986737 1.641471 
-4.204338 1.165356 -0.052124 
1.999418 2.981283 2.130037 
2.027984 2.896513 2.943592 
2.225770 2.911932 2.783823 
-1.979646 2.358790 3.167113 
-2.202414 2.239810 3.350988 
