0.297983 0.612262 0.274928
-0.61852 0.33065 -0.398433
0.683102 0.188861 0.094703
0.258057 -0.547686 0.625855
0.484775 0.466426 0.297068
0.642073 0.286061 -0.202472
0.166687 -0.626684 0.596771
-0.459691 -0.156069 -0.140932
-0.196022 0.562772 0.630191
0.103026 0.684566 0.387598
-0.09834 -0.168179 -0.284233
-0.578388 0.514703 -0.535035
-0.326035 0.45033 0.637045
-0.132361 0.636099 -0.89496
0.665701 -0.026058 -0.006208
-0.370405 -0.086927 -0.227897
-0.371603 -0.451157 0.021301
0.405915 -0.417195 0.125688
0.249798 -0.273291 -0.36998
-0.591423 0.477533 -0.354033
-0.252222 -0.461647 -0.02437
0.192604 -0.148361 -0.464653
-0.203617 -0.703547 0.188342
-0.453188 0.110276 -0.389429
-0.556287 0.334953 0.271848
-0.094135 0.657684 -0.803087
0.683723 0.106843 -0.385978
0.087019 0.008564 -0.565698
0.484972 0.471027 0.257382
-0.250117 0.774871 -0.573146
-0.02163 -0.092329 -0.385947
-0.160861 0.613756 0.550205
-0.648361 0.229163 0.042106
0.304526 0.388827 -0.868598
-0.043768 0.756977 -0.287869
0.407455 -0.401306 -0.110717
-0.161369 0.779589 0.044216
0.339137 0.246697 -0.912306
0.257549 -0.072637 -0.566332
-0.65039 0.077005 -0.169873
-0.635042 0.315338 -0.191285
0.004391 0.735492 0.225999
0.185545 -0.587853 0.085656
0.236956 0.591161 0.603084
0.443784 0.487666 -0.289226
0.597354 0.222258 -0.627622
-0.23776 0.77385 -0.073804
-0.478131 0.09217 -0.359982
0.326982 0.52734 0.646503
-0.093628 -0.117585 -0.324276
-0.301504 0.778345 -0.48094
0.226526 0.624402 -0.317822
-0.277427 -0.775814 0.456651
0.638966 -0.067255 0.204171
-0.653396 0.162494 -0.184495
-0.521206 0.406608 0.259795
-0.184279 0.028089 -0.413735
-0.28131 -0.706219 0.226136
0.358416 -0.341053 -0.296281
0.433059 0.231695 0.937973
0.654601 -0.038683 -0.475495
0.077896 0.704832 0.30266
-0.645279 0.270823 -0.155922
0.525058 0.296056 -0.686052
0.310383 0.562496 -0.387189
0.683728 0.038984 -0.343708
0.534611 0.421749 -0.221963
-0.158856 0.12069 -0.549584
0.200541 -0.63729 0.387162
-0.142695 0.475071 0.858919
0.580955 -0.173671 0.414275
0.471098 -0.232772 -0.419221
-0.003939 0.617289 0.649778
-0.404408 0.401202 0.554296
-0.055982 0.629226 0.592062
0.218959 -0.288899 -0.344284
0.443429 0.513564 0.220282
-0.089774 -0.461977 -0.087516
0.093589 0.044733 -0.614739
0.667746 0.00112 -0.461595
0.396095 0.493315 0.568921
-0.049951 0.7161 0.331888
-0.049558 0.775131 -0.042381
0.082465 0.485899 0.909525
-0.495181 -0.581224 0.214722
0.080141 0.649739 -0.568817
-0.33452 -0.066062 -0.258224
0.5875 -0.058666 0.60968
-0.033639 0.679419 -0.657163
0.241161 0.626843 0.41933
0.003392 0.588884 -0.866933
0.119937 -0.696669 0.489256
-0.038406 0.562249 0.762771
0.10148 0.542151 -0.874058
0.372663 -0.463461 0.33582
0.417657 0.292447 -0.846901
-0.642811 -0.183619 0.004154
-0.475168 0.397357 -0.712065
0.029022 0.096991 -0.644336
0.648824 -0.062476 0.056779
-0.130663 -0.790969 0.444432
-0.361802 -0.372153 -0.037409
0.570805 -0.206879 0.174756
0.586012 -0.155546 0.448771
0.150955 0.703684 0.02945
0.005911 -0.34194 -0.213794
-0.373378 0.352493 -0.742211
0.072364 -0.277947 -0.290723
-0.12499 0.06387 -0.494846
0.603303 -0.06854 0.527245
0.689667 0.070348 -0.110902
-0.310746 0.597227 0.383104
0.296296 -0.48155 -0.075185
0.430958 -0.396272 0.210255
0.273532 0.574339 -0.440917
0.552393 -0.066749 0.712436
0.034887 -0.261471 -0.285387
0.114758 0.61948 0.638233
0.326623 0.438771 -0.75877
0.026696 0.71523 0.322977
-0.502774 -0.449956 0.093356
0.601957 0.351679 0.154706
0.357507 0.323359 0.95693
-0.212042 -0.496577 -0.014087
-0.624909 0.197014 -0.298783
-0.054481 -0.781114 0.464015
0.488363 -0.331818 0.380696
-0.594317 0.188661 0.334077
-0.608694 0.360346 -0.018983
-0.356848 0.698757 -0.921449
0.092305 0.631743 -0.622267
0.656865 0.271868 -0.005567
0.494444 0.478746 0.078326
0.689223 0.083055 -0.316367
-0.275089 -0.378212 -0.070858
-0.446781 0.421371 0.439162
0.088038 -0.724771 0.435862
0.550892 0.319031 -0.574168
0.691736 0.116187 -0.220351
0.524602 -0.276841 0.133537
0.026891 0.74933 -0.157063
-0.570126 0.399186 0.09363
0.665135 0.044814 0.22023
-0.110314 -0.491275 -0.056033
-0.089906 0.780661 -0.187915
-0.147339 -0.575162 0.031478
-0.641531 0.144525 0.230318
-0.545813 0.546686 -0.237642
-0.606086 0.382788 -0.07279
0.459987 0.492102 -0.173866
0.514621 0.265956 -0.748161
0.658124 -0.045821 -0.429342
0.136867 0.698143 0.206118
-0.162323 0.729135 -0.676966
0.011407 0.272181 -0.873324
-0.551093 0.02562 -0.261724
0.389628 0.453835 -0.598566
-0.632586 0.265841 -0.29225
0.292455 0.523873 -0.603013
-0.021035 0.188448 -0.740086
0.681633 0.172879 -0.308487
0.428591 0.524659 -0.073974
-0.221734 -0.236538 -0.179966
0.62687 -0.101047 0.173497
0.277691 -0.550196 0.228345
-0.154458 -0.001694 -0.397939
0.433133 0.473101 0.525442
-0.000777 0.63882 0.590191
-0.646884 0.163196 0.182194
-0.290449 -0.570949 0.080111
-0.018481 -0.721206 0.209004
0.04712 0.070923 -0.620527
0.29637 0.513498 0.748929
-0.310806 0.715777 0.062531
0.06607 0.69882 0.363549
-0.473625 0.473043 0.273877
0.614037 -0.14679 -0.270136
0.075391 -0.683639 0.194816
0.33234 0.102367 -0.800402
0.170316 0.650404 -0.338934
0.573074 -0.145545 0.556662
-0.185421 -0.772893 0.567734
0.215932 -0.616297 0.311225
0.428211 -0.380537 0.601436
-0.130938 -0.218818 -0.233154
0.436182 0.441186 0.635461
0.25268 -0.333361 -0.307977
-0.140049 0.744438 -0.561918
0.558644 -0.230267 -0.012558
0.32258 -0.510372 0.300795
-0.540094 -0.042254 -0.204383
0.173478 -0.639108 0.227394
0.683113 0.058631 -0.378597
0.354493 0.386753 -0.809413
-0.288004 0.663284 0.25196
0.565603 0.000814 0.708816
0.644581 0.297001 0.065854
0.046913 0.551251 -0.903704
0.051162 -0.716766 0.562327
-0.362217 0.186643 -0.519
-0.347031 -0.520538 0.062312
0.042929 0.177465 -0.765179
-0.42461 -0.599258 0.178326
0.431791 0.503471 -0.248403
-0.655078 -0.123902 0.376832
-0.57398 -0.53046 0.263368
0.083403 0.198751 -0.818237
-0.553237 0.066752 -0.297555
-0.117579 0.772825 -0.348971
0.517612 0.433884 0.284134
0.002042 -0.76416 0.37559
0.145103 0.663754 0.431987
0.382506 0.56184 0.206539
-0.357778 -0.714608 0.290105
0.041059 0.606656 -0.783782
-0.437274 -0.628673 0.22303
-0.416235 0.487672 0.398096
0.454507 -0.329765 0.653416
-0.172663 0.786381 -0.127636
0.038679 -0.682929 0.619293
0.343657 -0.231878 -0.44488
0.435063 0.478421 -0.374137
-0.454306 0.526562 0.210502
-0.296348 0.735321 0.021897
-0.559666 0.508672 -0.180416
-0.11491 -0.687593 0.14634
-0.414194 0.637536 0.036242
-0.540616 0.44988 0.097144
0.591009 -0.186118 -0.088728
0.537251 0.121644 0.788979
-0.085959 0.096486 -0.565865
-0.333039 0.299734 -0.692268
-0.666426 -0.023447 -0.072162
0.568955 -0.132719 0.598422
-0.08983 0.502479 0.849431
-0.553698 0.565883 -0.399931
-0.499552 0.647928 -0.409943
-0.328067 -0.758832 0.435288
-0.638121 -0.264203 0.463194
0.355805 0.534885 -0.379551
-0.477715 -0.076287 -0.198736
-0.243164 0.291119 -0.739824
0.648723 0.122356 -0.568368
0.606711 0.351821 -0.098722
-0.238677 0.69594 -0.867777
0.523755 -0.151637 0.717964
0.503328 -0.191074 -0.474324
0.691735 0.123524 -0.164534
0.572069 -0.196788 0.371836
0.229641 -0.582551 0.594982
0.424507 0.050107 -0.747667
0.371709 0.571596 0.13473
-0.35183 -0.715408 0.559189
0.434954 -0.382871 -0.029842
-0.660007 0.193539 -0.123192
-0.336243 0.503535 0.53796
-0.317336 -0.674644 0.201638
0.358054 -0.478038 0.50292
-0.320106 -0.268643 -0.119647
0.684283 0.025889 -0.298491
0.119515 0.697 -0.212808
0.611867 0.218836 0.494739
-0.119249 -0.747984 0.617623
0.433095 -0.330775 0.732508
-0.605713 -0.052906 -0.148347
-0.045164 0.655182 0.523197
0.004946 0.706822 -0.450255
0.375285 0.561841 -0.071792
-0.504937 -0.632775 0.337896
0.554657 0.038034 0.748422
0.624185 0.291581 -0.350167
-0.194196 0.250151 -0.712811
-0.148919 0.783543 -0.325822
-0.438928 0.039456 -0.3214
-0.508901 0.073151 -0.328171
-0.466312 0.331435 -0.640263
-0.09449 0.777479 0.056614
0.403515 0.548061 0.172684
0.104555 0.725555 0.02042
-0.404774 0.739196 -0.461598
-0.302824 0.716433 -0.870484
-0.478383 0.666252 -0.377404
0.658638 -0.063542 -0.337912
0.582492 0.259657 0.570704
0.507907 0.325885 0.708321
0.01735 0.675079 -0.583917
-0.010327 0.507929 -0.982001
-0.249646 0.396936 -0.879457
-0.286441 0.458456 -0.923598
0.508393 0.437956 -0.268658
0.002518 0.032057 -0.540239
-0.55193 0.285849 -0.502024
0.022943 0.222097 -0.814616
0.448109 0.471598 0.472889
-0.337929 0.353118 -0.766373
0.191529 0.533281 0.803342
-0.651418 -0.00138 0.314369
-0.320889 0.035326 -0.357498
-0.649275 -0.284348 0.106561
0.084289 -0.393095 -0.202992
-0.203891 0.479873 0.781932
-0.677698 -0.264095 0.192208
0.345327 -0.486174 0.255994
0.538097 0.263978 -0.707263
-0.072895 -0.374655 -0.158091
0.653007 -0.072149 -0.133212
0.475799 0.46709 -0.262521
-0.373206 0.405648 -0.809231
0.143394 0.439448 -0.965352
0.258469 0.588771 0.565555
0.495501 -0.312901 0.065529
0.639327 -0.07802 0.119179
0.521345 -0.14338 -0.529642
0.297146 0.615581 -0.027296
-0.403489 -0.503799 0.077622
0.524191 -0.001924 -0.667834
0.621823 0.259707 0.371139
-0.568121 0.481798 -0.642014
-0.462263 0.702761 -0.806745
-0.152755 0.675328 0.394526
0.344653 -0.159152 -0.520405
-0.468745 -0.044375 -0.230317
-0.6867 0.013793 0.126759
-0.142309 0.776449 0.078436
-0.232458 0.715618 -0.814648
0.674826 0.206168 -0.268106
0.415442 -0.4041 0.039603
0.505388 0.335044 -0.651896
-0.178818 -0.680424 0.151438
0.683061 0.185655 -0.226465
-0.601263 0.423755 -0.466811
0.285382 0.463525 0.853141
0.581022 0.175953 0.657997
0.419928 0.364785 0.822473
0.256378 0.464061 0.879729
0.526237 -0.278302 0.250974
0.23603 -0.177408 -0.460092
0.250538 -0.541111 0.051053
-0.282759 -0.736543 0.592688
-0.331679 0.395215 -0.826263
-0.200528 0.776382 -0.470017
0.535102 0.400009 -0.337766
-0.374384 0.749753 -0.751583
-0.574711 -0.536514 0.449451
0.514605 0.384611 0.538361
-0.06924 0.253774 -0.800947
-0.48299 0.675568 -0.456661
-0.099932 -0.753609 0.255658
0.620625 0.337619 0.000885
-0.653979 0.067035 0.262157
0.437413 -0.128844 -0.563385
-0.409779 -0.665966 0.2535
-0.467233 -0.668947 0.354606
0.678381 0.048042 -0.419017
0.339906 -0.499115 0.471764
0.269653 -0.359871 -0.280177
-0.579758 0.430384 -0.570766
0.646103 0.273056 -0.252147
-0.189626 0.415046 -0.934235
0.103554 0.726054 -0.020397
-0.02923 0.746558 0.207639
-0.422438 0.704791 -0.284311
-0.446034 0.21524 -0.510656
-0.664976 0.151315 -0.118512
0.248226 -0.574187 0.198547
-0.096671 0.725385 -0.574391
-0.416137 0.738296 -0.586051
-0.013732 0.215125 -0.782395
0.384821 0.537082 0.40647
0.690374 0.119783 0.076465
0.673658 -0.016315 -0.337217
0.276351 -0.520356 0.026627
0.678597 0.151624 -0.38014
0.174866 0.688581 -0.023361
-0.201295 0.691049 -0.84478
-0.311571 0.550036 0.492257
-0.621564 -0.264007 0.044547
0.517851 -0.223207 0.642096
0.398746 0.544939 0.264424
0.635298 -0.064683 -0.505851
0.088909 -0.605061 0.04946
0.296313 0.158523 -0.856261
0.141343 -0.322031 -0.283673
-0.436933 -0.675616 0.501157
0.4225 0.322447 0.87197
0.168479 0.674923 0.284581
0.536927 -0.185766 0.637247
0.378329 -0.36243 -0.25403
-0.360341 0.072198 -0.38335
0.675597 0.099203 -0.446272
-0.265928 -0.666454 0.16644
-0.143233 0.767424 -0.430499
-0.374532 -0.174032 -0.160495
-0.447748 0.717944 -0.758243
0.467557 0.167294 -0.82754
0.023658 -0.615187 0.051006
0.575933 0.339078 -0.414814
-0.542727 0.331316 -0.556817
-0.124218 0.749244 -0.503999
0.277203 -0.043926 -0.602605
0.261816 0.640045 0.172887
0.275998 -0.545074 0.165284
0.145432 0.675514 0.358999
0.215207 -0.252317 -0.378218
-0.05424 0.753818 -0.329811
0.627103 -0.127097 -0.189643
0.05242 0.637229 0.603756
0.491263 0.439072 0.414996
0.122922 -0.070119 -0.499823
0.322727 0.20029 -0.89457
-0.151497 0.337548 -0.864826
0.265887 0.397656 -0.902567
0.638346 0.307399 -0.028374
-0.209247 0.785291 -0.394269
0.553432 0.206224 -0.729517
-0.143996 0.643704 0.489421
0.604986 -0.145163 0.187855
0.018166 0.722736 0.283468
0.571804 0.376292 0.24106
0.289547 0.537496 0.697177
0.49258 0.443582 -0.315135
0.238448 0.50083 -0.776114
-0.074317 -0.736328 0.618541
-0.142185 0.284101 -0.796653
0.679556 0.047594 0.092065
0.397968 -0.428407 0.538311
0.368742 -0.459226 0.188394
0.598192 -0.155708 0.227457
-0.596166 -0.400107 0.135795
0.654759 0.179113 0.294926
-0.667795 -0.127745 0.332202
-0.629522 0.321929 -0.065889
0.592318 -0.074844 -0.557608
0.67774 0.153227 0.175031
-0.42577 0.653816 -0.931711
-0.479624 0.142764 -0.412588
-0.539603 0.577237 -0.771742
0.26861 0.276037 -0.931585
-0.515336 0.658741 -0.656802
0.138569 0.417588 0.973627
0.227841 0.379083 0.984279
-0.174111 -0.750812 0.619266
0.040335 0.741403 0.107984
0.228787 -0.211616 -0.424085
-0.604337 -0.112953 -0.100179
0.678107 -0.005411 -0.261246
0.070654 0.1228 -0.705576
0.272794 -0.55833 0.291714
0.627921 0.026886 -0.6018
-0.108971 0.667005 0.452275
-0.212088 -0.767618 0.315297
-0.125351 0.597777 0.623366
-0.578818 0.47232 -0.593851
-0.261136 0.099382 -0.459489
0.317872 0.313704 0.994081
0.181011 -0.560547 0.008599
-0.366973 0.700071 -0.040489
0.603677 -0.089121 0.493706
-0.151878 -0.756159 0.262289
-0.546424 0.479132 -0.011879
0.341898 -0.297558 -0.359074
-0.300172 0.083819 -0.42146
-0.310554 0.490412 0.604171
0.551856 -0.237146 0.309202
-0.015058 0.122708 -0.651067
-0.531486 0.54497 -0.142982
0.13316 0.654018 -0.420402
-0.041361 0.541507 0.803221
-0.46549 -0.36816 0.008361
0.110451 -0.677563 0.567934
0.657224 0.095666 0.311468
-0.291105 -0.6066 0.113041
0.551087 0.092784 -0.729697
-0.226672 -0.777991 0.525464
-0.182801 0.6391 -0.931022
0.526941 -0.249831 -0.281915
0.107638 -0.650781 0.150987
0.279845 0.630284 0.045753
0.078387 0.35138 -0.96388
0.037619 0.746196 0.062512
0.554507 -0.232612 0.09659
0.580084 0.339222 0.364491
-0.32998 0.77206 -0.53889
0.224051 -0.544379 0.676335
0.602521 0.363118 0.054462
0.053155 0.030778 -0.572095
0.064652 -0.069583 -0.464899
0.44019 -0.353332 -0.193872
0.121724 0.708831 0.16656
-0.472679 -0.670545 0.421996
0.073296 0.577951 0.755532
0.281093 -0.540328 0.592615
-0.09524 0.732167 0.269061
0.361636 0.325619 -0.873437
0.452856 0.292888 -0.806207
-0.508523 0.501654 0.092436
0.411118 -0.421028 0.280986
0.521966 -0.273102 0.482627
0.482271 -0.33934 0.270948
0.487397 0.479941 0.160525
-0.604384 0.434721 -0.396746
0.092513 -0.583164 0.011079
-0.049213 -0.703396 0.169508
-0.64524 0.252232 0.007254
0.004078 -0.397575 -0.171329
-0.338952 0.276563 -0.654595
-0.647556 0.121544 -0.199334
-0.063893 0.053217 -0.522674
0.191883 0.067859 -0.696955
-0.222599 0.582332 0.555564
-0.382969 -0.127571 -0.191098
-0.259315 0.131194 -0.502217
-0.210864 0.351486 -0.846197
0.352525 0.564144 0.380403
-0.391727 0.438068 -0.831529
0.677699 0.006178 -0.096514
-0.320826 0.769807 -0.314306
0.283001 0.611899 0.353394
-0.528941 -0.334699 0.019206
0.693548 0.118494 -0.031739
0.24827 0.62103 -0.259967
0.588165 -0.126081 -0.494866
0.204306 0.623512 -0.391518
-0.428663 0.382336 0.527131
0.252939 0.46872 -0.819552
-0.671055 -0.233647 0.11324
-0.485763 0.689765 -0.646253
-0.215697 0.750602 -0.671763
0.633905 0.049554 0.462587
0.240671 -0.006686 -0.628311
-0.224946 -0.650882 0.132997
0.150788 -0.052469 -0.534283
-0.36108 -0.74001 0.465198
-0.69052 -0.16264 0.179387
0.287231 0.477704 -0.742819
-0.201925 0.737222 0.179272
-0.638557 0.080792 0.299403
-0.094305 0.733167 -0.532416
0.600081 0.314569 0.331552
0.139265 0.616127 -0.592477
-0.229275 0.444713 -0.941966
0.394045 0.506988 -0.384793
-0.592108 0.467907 -0.29555
-0.62774 0.144542 0.278272
-0.545575 0.209676 -0.439306
0.276073 0.589926 -0.353388
-0.284549 0.256051 -0.660965
-0.002418 0.699499 0.392952
0.139329 -0.355727 -0.252246
0.40601 -0.221631 -0.463356
-0.398025 0.390043 -0.771816
-0.49647 -0.603892 0.250433
0.15634 0.471908 0.918836
0.309231 -0.355028 -0.286047
0.586173 0.034659 0.658271
0.240681 -0.593354 0.505887
-0.167334 -0.790774 0.416422
0.009463 0.069155 -0.593796
0.534438 0.310299 -0.638369
-0.134731 0.518631 -0.996979
-0.297828 0.773908 -0.598156
-0.069412 0.752324 -0.372732
0.600308 0.22908 0.539097
-0.339833 0.08983 -0.411756
-0.087866 0.564934 0.727493
0.642273 0.200364 -0.509975
-0.490511 0.41176 0.342802
0.175159 0.68671 0.16488
-0.637768 -0.321323 0.122199
-0.381166 0.540721 0.371841
0.530416 0.371139 -0.481444
-0.212932 0.13149 -0.529799
0.542356 -0.115993 -0.550234
0.489928 -0.319988 0.024891
0.224682 0.419493 0.952818
-0.247348 -0.419837 -0.055472
-0.336039 0.752905 -0.223241
-0.247656 0.75426 -0.694206
-0.475947 -0.283402 -0.044386
-0.109237 -0.774618 0.314817
-0.605195 -0.509236 0.364218
0.224708 -0.36576 -0.266555
0.206731 0.460474 -0.89866
0.503613 -0.306182 -0.115393
-0.475863 0.369362 -0.677386
0.487172 -0.121087 -0.567227
0.314757 0.580679 -0.264938
-0.599263 0.430778 -0.196903
0.481107 -0.267497 -0.333933
-0.581412 -0.376678 0.093436
0.396939 0.551385 -0.002254
0.630624 0.002537 0.453135
-0.05623 0.679009 -0.693134
-0.485582 0.224894 -0.498968
0.480183 0.374922 -0.608515
0.208121 0.108373 -0.758516
0.401428 -0.175732 -0.515995
-0.003943 0.750278 -0.234755
-0.467381 0.662101 -0.286997
-0.333817 0.431042 -0.865632
0.490773 0.472015 -0.121804
-0.404965 -0.715991 0.366993
0.191526 0.015286 -0.631175
0.613359 -0.116411 -0.465648
-0.099911 -0.640158 0.087326
0.440765 0.404404 -0.619701
-0.314468 -0.384511 -0.050108
-0.262999 0.484426 -0.959108
-0.422924 -0.406033 0.014131
0.636906 0.146917 0.428152
-0.11226 -0.716773 0.187606
-0.251759 0.78779 -0.312585
-0.673114 -0.09596 -0.005614
-0.511194 0.624798 -0.361197
0.110591 -0.555795 -0.029577
0.320285 0.603272 0.012198
0.373347 -0.44929 0.102466
-0.529173 0.484497 0.054824
0.508029 0.05767 0.843243
0.540273 0.38525 0.402108
0.303768 0.418809 -0.830495
0.215511 0.667175 -0.000304
-0.442499 -0.271788 -0.067337
-0.682024 -0.000852 -0.023231
-0.089714 0.782542 -0.117446
-0.341891 0.733017 -0.123107
0.019306 0.59936 -0.827242
0.281762 -0.548312 0.551069
-0.551567 -0.22026 -0.048743
0.603481 0.344211 -0.213631
-0.094565 0.637581 -0.853739
-0.334591 -0.747565 0.493714
-0.02365 0.76384 -0.180833
0.4022 -0.431109 0.45657
-0.488361 -0.32555 -0.009585
-0.309144 -0.178888 -0.181997
-0.39459 -0.046582 -0.253496
0.483762 -0.329413 0.123749
-0.025894 -0.761553 0.31479
-0.635917 0.160489 -0.248291
0.581215 0.360149 -0.28964
-0.537385 0.523036 -0.101848
-0.246661 0.628437 0.408064
-0.595565 0.446305 -0.49846
-0.390684 0.750857 -0.667463
-0.097358 0.208888 -0.718348
-0.168573 -0.787976 0.498697
0.237968 0.535298 -0.683863
0.626872 -0.048893 0.399611
-0.621444 0.364646 -0.349447
-0.550209 0.369649 -0.582851
-0.397861 0.681936 -0.076834
0.457016 0.411691 0.664612
-0.050663 0.728456 0.291193
0.518061 0.158535 0.818204
0.06323 0.664593 0.505289
-0.287859 0.474147 0.666482
0.385328 0.538361 -0.239048
0.400151 -0.385615 -0.183717
0.427805 0.516098 0.31367
-0.268198 0.605902 0.433243
0.582547 0.23279 0.604072
0.645568 0.197697 0.329922
-0.043398 0.34239 -0.929805
-0.670933 0.129292 -0.076469
0.058254 -0.111468 -0.42023
0.300779 -0.405187 -0.221397
-0.518477 -0.020112 -0.235269
-0.25105 -0.50518 0.00851
-0.212731 0.790954 -0.305539
0.354844 0.515602 -0.47034
-0.641165 0.241994 -0.239367
-0.13259 0.403399 -0.950845
0.201794 0.652868 0.356873
0.045206 0.24357 -0.855749
-0.158618 0.389831 -0.924305
-0.361786 0.683299 0.042489
0.561745 0.346413 0.448606
0.514221 0.10585 0.83548
-0.221303 0.784967 -0.183049
0.170243 0.102347 -0.732318
0.285343 -0.554489 0.41756
-0.31189 0.613006 0.341442
0.243458 0.370449 -0.941056
0.368754 -0.448844 0.021591
-0.532576 0.455547 -0.703714
-0.083143 0.658024 0.494571
0.236265 -0.035505 -0.595022
-0.675899 0.113537 0.042895
0.659746 -0.046887 -0.045812
-0.597825 0.253436 0.252461
0.585363 0.3106 0.437574
0.455995 0.192341 0.920203
-0.676239 0.061149 0.164151
0.014532 -0.053727 -0.448283
-0.582612 0.478463 -0.239777
-0.254425 0.7733 -0.134373
0.043342 0.610262 0.681229
0.33983 0.53328 -0.43593
-0.52128 0.223448 -0.474115
-0.50742 -0.638075 0.391478
0.505046 0.369415 -0.563202
0.495358 0.36343 0.671057
-0.098371 0.524094 0.807304
-0.169318 0.483777 -0.988599
0.662912 0.133406 0.273613
0.659581 -0.063419 -0.249768
0.198238 0.646939 -0.27108
-0.437193 0.703505 -0.357791
-0.118929 0.783091 -0.006721
-0.234201 -0.591335 0.076419
-0.209444 -0.171399 -0.228249
0.263567 0.589322 -0.39536
0.147263 -0.588041 0.046048
0.619901 0.233725 -0.547117
-0.027182 0.070417 -0.570799
0.689423 0.058536 -0.191925
0.25714 0.635494 0.269755
0.54215 -0.251582 0.037027
0.553924 -0.233512 0.138824
0.062377 0.65162 0.552574
-0.289088 0.544154 0.543298
-0.023554 -0.767475 0.500491
-0.624074 0.26033 0.127516
-0.686505 0.020345 0.015459
0.615469 0.337525 -0.136449
-0.623708 0.263995 -0.34569
0.001564 0.673033 0.481666
-0.647392 -0.398514 0.394049
0.588341 -0.11773 0.531205
0.190184 0.561108 0.747919
0.642971 0.295983 -0.073068
0.103139 0.654042 0.523356
-0.544811 -0.514018 0.192077
-0.25956 0.652663 0.328182
-0.05908 -0.728484 0.209739
-0.486648 -0.531898 0.155663
-0.216264 -0.567841 0.048337
0.142988 0.181094 -0.825675
0.47137 -0.345009 0.49341
-0.274593 0.455663 0.714184
-0.567048 -0.074659 -0.160432
0.155929 0.652024 0.474209
0.527368 -0.276854 0.345077
-0.494693 0.555911 -0.004231
-0.521236 0.522845 -0.784865
-0.554837 -0.578454 0.324876
-0.519151 0.382194 0.311368
0.490349 0.024732 -0.70716
-0.004336 -0.513938 -0.067273
0.05284 -0.743918 0.394101
-0.394687 -0.219139 -0.121983
0.402227 0.393778 -0.721406
-0.085038 0.676053 -0.740597
0.191796 -0.193324 -0.42342
-0.519788 0.577815 -0.202522
0.046066 0.70196 -0.379727
0.235016 -0.482025 -0.118021
-0.420481 -0.303656 -0.055886
-0.068818 0.309815 -0.877228
-0.261655 0.753088 0.027931
0.481105 -0.301054 0.614515
-0.228433 0.649468 0.379669
0.242829 0.520702 0.791875
0.519134 -0.242631 0.597967
0.539504 0.313627 0.632173
0.569098 0.389711 -0.197666
0.569757 -0.061121 0.665123
-0.268062 -0.254121 -0.149777
0.131479 0.607869 -0.642168
-0.270884 0.223506 -0.622934
-0.461338 0.569194 -0.895645
0.398101 0.537419 -0.167895
0.591989 -0.172801 -0.312988
-0.601349 -0.211471 -0.019047
-0.61178 0.273793 -0.396777
0.350163 0.565339 -0.207269
0.331824 0.573461 0.412778
-0.489344 0.471483 -0.779081
0.598193 -0.161873 0.105083
0.351345 -0.488241 0.431984
0.253908 -0.451189 -0.16206
0.67494 0.012818 0.041342
0.391559 0.338895 -0.827172
-0.633367 0.031084 0.340355
0.188994 0.595305 -0.568626
0.000352 0.619433 -0.79709
-0.630098 -0.446557 0.273091
-0.196879 -0.779687 0.35123
-0.062214 -0.780067 0.361507
-0.572597 -0.000182 -0.222367
0.50253 0.195065 -0.8001
-0.045768 -0.13642 -0.335074
0.527014 0.389175 0.463685
-0.184849 -0.617075 0.084327
0.215295 0.330712 -0.953839
-0.290644 0.413165 -0.872731
-0.570408 0.530113 -0.606029
-0.120611 0.602982 -0.940754
0.237458 0.168441 -0.847757
-0.68469 -0.038709 0.211048
0.063321 0.726475 -0.2045
-0.027801 -0.776964 0.404816
-0.667811 -0.223592 0.364459
0.392175 0.363223 0.86791
0.522233 -0.224803 -0.370135
-0.654158 -0.041732 0.330178
0.29561 0.563465 0.581382
-0.663323 -0.369382 0.328048
-0.558506 0.49471 -0.125138
0.66341 0.21559 0.196672
-0.510452 -0.383102 0.044015
0.410652 0.544677 0.115906
0.431896 0.115838 -0.821038
0.207074 0.15647 -0.821514
0.47598 0.435926 -0.41991
0.001419 -0.484757 -0.098119
0.517766 -0.289953 -0.059124
-0.187599 -0.745028 0.247502
0.431455 0.190595 -0.859344
0.529119 -0.059495 0.771497
-0.505624 -0.606266 0.491185
0.59009 0.367904 -0.170229
-0.519277 0.48046 -0.750153
-0.016626 0.645205 -0.745868
0.30471 0.599192 -0.157856
0.621547 0.031444 0.516201
0.078857 0.725763 -0.163003
-0.411175 0.741 -0.545868
-0.535108 -0.57051 0.256304
0.003424 0.562053 -0.916818
0.550685 -0.190385 -0.409932
0.293386 0.361551 -0.904038
0.435529 -0.382284 0.009331
0.336696 -0.490271 0.180649
0.620776 0.174042 0.499284
-0.661548 0.18497 0.026003
-0.195113 -0.128112 -0.265842
-0.331743 -0.035945 -0.284668
0.119455 0.696695 0.253272
0.654785 0.235802 -0.356091
0.323734 0.591546 0.321859
-0.529153 0.26321 0.427913
0.570308 0.403525 0.073167
-0.173877 0.764836 -0.515874
0.499757 -0.053804 -0.625739
0.395501 0.471693 0.655811
-0.510714 0.450821 0.204177
-0.044623 -0.342892 -0.191727
-0.153224 0.557328 -0.991468
0.472672 0.489412 -0.090592
-0.627616 0.073393 -0.216184
-0.240152 0.03021 -0.387623
-0.518099 -0.482368 0.132793
-0.307422 0.634404 0.296144
-0.608645 0.270819 0.182373
0.350967 0.437696 -0.717091
0.463749 0.345283 0.772913
0.576981 0.066255 -0.690218
0.404572 0.154443 -0.858405
-0.415894 0.679093 -0.136996
-0.089685 -0.41925 -0.119936
-0.207503 0.623084 0.476415
-0.396056 -0.255713 -0.097371
0.02335 0.500135 0.888656
-0.692399 -0.075665 0.157135
-0.291037 -0.763271 0.505942
0.112368 -0.668504 0.198424
0.58703 0.07499 0.662045
0.19187 0.577567 0.706433
0.375583 0.461067 0.736072
0.609218 0.252984 0.451994
-0.580424 0.365299 0.126411
-0.411316 0.420587 0.51624
-0.191139 0.468847 0.817216
0.680288 0.080766 0.140489
-0.58124 0.31267 0.221551
-0.633419 0.310603 -0.258471
0.587467 0.335141 -0.372222
0.187618 0.514321 0.84094
-0.009848 0.714716 0.339627
-0.383169 0.099568 -0.405646
-0.195168 0.753174 -0.627895
-0.393279 0.729715 -0.298823
0.200396 -0.620488 0.547751
-0.650138 -0.174157 0.415943
-0.122914 0.783977 -0.24871
0.497927 -0.249027 0.663794
0.209607 0.400729 -0.951177
-0.303773 0.188702 -0.55359
0.385802 0.436756 -0.653073
-0.282612 -0.764381 0.356821
0.356694 -0.416594 -0.16821
-0.039654 0.765553 0.07912
0.126332 0.700947 -0.161344
0.46272 -0.337835 0.583674
0.309372 0.480293 -0.693963
-0.605529 0.424313 -0.258424
-0.659979 -0.292948 0.146733
-0.613595 0.016233 -0.194107
0.208072 0.604435 -0.478084
0.162866 -0.097776 -0.495512
-0.656085 -0.325146 0.176546
-0.553181 0.590093 -0.585341
0.620486 -0.0846 0.356237
0.101173 0.609224 -0.692374
-0.648521 -0.357671 0.415394
0.358332 0.062361 -0.754271
-0.378318 0.659917 0.071134
0.157346 -0.620255 0.132402
0.330062 -0.046635 -0.617519
0.083432 -0.722553 0.337446
0.3363 0.595506 0.120034
-0.657243 0.177143 0.087756
0.315767 -0.504651 0.61095
0.493424 0.299618 0.771213
0.494583 -0.316214 0.472769
-0.174718 0.783201 -0.017206
0.459912 0.24323 0.881981
0.446379 -0.369521 -0.08393
0.021656 0.629969 -0.74246
-0.588857 -0.530843 0.321201
0.170233 0.688206 -0.06467
0.361515 -0.081934 -0.592523
0.183379 0.041591 -0.6593
0.437349 0.009491 -0.698584
-0.071195 -0.769822 0.538531
0.595224 -0.17998 -0.140131
-0.048723 0.695187 -0.622284
-0.205789 0.221399 -0.663015
-0.66141 0.136372 0.143407
0.022309 0.464763 0.929594
-0.263075 0.668395 -0.937389
0.232787 0.585497 -0.502447
-0.438872 -0.475868 0.07484
-0.525082 0.598714 -0.331
0.461108 -0.308888 -0.27162
0.533709 0.421758 0.245414
-0.039456 0.113542 -0.621773
-0.290009 0.309378 -0.735343
-0.681781 0.004406 0.192735
0.691623 0.143723 0.034516
0.376909 -0.439349 0.626221
0.174359 0.625686 0.562796
0.348866 0.359329 -0.854478
0.019503 0.684207 0.442875
0.612447 -0.14203 0.023426
0.412006 -0.395537 0.635
0.371526 -0.462459 0.295382
0.232375 -0.606773 0.412483
0.444462 -0.290924 -0.329511
0.298264 -0.496468 0.691454
0.581962 -0.182582 0.307492
0.180297 0.607762 0.62372
-0.344804 0.574644 0.371244
0.367338 0.494748 -0.519229
0.230855 0.655169 0.204912
0.223333 0.65695 -0.072757
0.121599 0.688776 -0.259109
-0.528027 0.450645 0.144494
-0.380244 0.648917 -0.961786
-0.125657 0.690108 -0.751076
0.282819 -0.552171 0.342068
0.380386 -0.457178 0.411435
0.129047 0.709779 0.123623
-0.470636 0.192854 -0.472672
0.367211 -0.463241 0.232089
-0.237048 -0.621702 0.10647
-0.654311 0.236638 -0.109474
0.665704 -0.035366 -0.09827
-0.382127 0.72747 -0.235583
-0.151798 -0.606875 0.064499
0.151053 0.009611 -0.603782
-0.529263 -0.420861 0.087431
-0.064355 0.770329 -0.229579
0.64818 0.033033 -0.563664
0.371665 0.204411 -0.89299
0.006901 0.737002 -0.289874
0.235003 -0.590565 0.550664
0.087484 0.403637 -0.984735
0.092225 -0.361763 -0.23133
0.471968 0.300003 0.809481
0.268061 0.395628 0.958568
0.418818 0.517815 0.354307
0.364015 0.568321 0.285053
-0.376235 0.757049 -0.592765
0.218614 0.252557 -0.921054
0.559556 0.325341 -0.528482
0.344139 0.55707 -0.297978
-0.624368 0.358778 -0.252269
-0.303479 0.44293 0.686204
0.672306 0.053297 0.168329
0.219025 0.488992 -0.833304
-0.510764 0.660444 -0.59614
0.079066 0.677822 0.442907
0.651381 0.146604 0.344177
-0.625333 0.311579 -0.361331
-0.390192 0.588067 0.235065
0.532051 0.357999 -0.518352
0.638342 -0.101849 -0.107151
-0.676484 0.113596 -0.015895
-0.355894 -0.644734 0.186064
0.529333 0.434564 -0.162097
-0.233902 -0.725282 0.232757
-0.146859 0.788369 -0.158844
-0.674809 -0.196662 0.327326
-0.347111 0.764468 -0.41297
0.282742 0.516338 -0.648535
-0.560454 0.570773 -0.534223
-0.105317 0.377891 -0.938286
-0.118178 -0.778186 0.53663
0.035268 0.734155 -0.236329
-0.014237 -0.772838 0.443889
0.480434 0.054541 0.886003
0.445408 -0.38297 0.433906
0.512329 0.446026 -0.198536
0.048738 -0.366222 -0.212225
0.060918 -0.555118 -0.032024
0.117723 0.584469 -0.745578
-0.335331 -0.747016 0.360797
-0.167096 0.540396 0.709792
-0.30958 -0.734927 0.295006
0.487582 0.202672 0.856738
0.407576 0.472374 0.612331
-0.294197 -0.4556 -0.010836
0.432461 0.516743 -0.133654
-0.296965 0.699715 0.138516
0.571393 0.213207 -0.691209
-0.04955 -0.540069 -0.029307
0.444265 -0.3845 0.265895
0.35534 -0.261508 -0.409596
-0.317741 0.697444 -0.919622
0.29133 0.600702 -0.220047
0.11759 -0.437983 -0.170358
0.536401 -0.154264 0.679142
-0.154913 -0.329234 -0.152863
0.021641 -0.752895 0.489595
-0.06137 0.22063 -0.759184
0.12799 -0.256701 -0.334638
0.057462 0.456145 -0.989145
-0.534321 0.288393 0.391248
-0.020474 0.315365 -0.908542
0.667519 0.233681 -0.204816
0.624718 -0.11299 0.081967
0.23923 0.611137 -0.354751
0.534227 0.379804 -0.435734
-0.327098 -0.112186 -0.224035
0.587661 0.361107 -0.245194
-0.214204 0.49301 -0.984111
0.130626 0.666516 -0.359699
0.429014 -0.34338 -0.24101
-0.463835 -0.668826 0.460755
-0.385461 0.445192 0.53463
-0.045258 -0.268411 -0.241697
-0.177717 0.185744 -0.630194
0.497269 -0.317364 0.4291
-0.073387 0.750288 0.219061
-0.691269 -0.036268 0.104531
0.428105 -0.315364 -0.299594
-0.451145 0.660378 -0.204795
-0.104084 0.690496 0.388525
0.525251 -0.269476 -0.213453
0.073542 0.711188 0.258431
0.570356 -0.052834 -0.596786
0.054984 0.538735 0.828741
0.271512 0.433236 0.912158
0.057477 -0.005094 -0.531013
-0.527042 -0.087013 -0.169803
0.530386 -0.250742 0.518832
-0.588523 0.486785 -0.49695
0.137753 -0.67606 0.526539
-0.439347 0.46899 -0.825078
0.570638 0.396746 0.13057
0.604822 -0.113834 0.430702
-0.584121 0.42006 -0.041373
-0.679701 -0.24054 0.300366
-0.064811 -0.785294 0.422825
0.661912 0.075506 0.269094
0.14465 0.518598 -0.874574
-0.37074 0.163624 -0.486352
0.566355 0.132371 -0.726821
-0.591626 -0.466433 0.200036
-0.289202 -0.343455 -0.086553
-0.1938 0.451477 -0.963885
0.114858 0.131198 -0.743027
-0.007706 0.255815 -0.841708
0.610089 -0.15107 -0.029049
0.059678 0.611894 -0.745714
0.484192 -0.323389 -0.149945
-0.355003 0.235554 -0.587249
0.144361 -0.1417 -0.444324
-0.424529 -0.449722 0.046464
0.628806 -0.068825 0.311679
0.422534 0.404146 -0.659115
-0.086819 0.404166 -0.969515
-0.419703 0.286613 -0.614656
0.637611 -0.107918 -0.319898
0.600655 -0.147625 0.268037
-0.016252 -0.566546 -0.008671
0.537703 -0.26484 -0.102282
-0.035045 0.585583 0.715029
-0.41089 -0.372836 -0.014689
-0.080876 0.172255 -0.676943
-0.56261 -0.175642 -0.076213
-0.178516 0.789936 -0.211239
-0.490928 0.511883 0.129809
-0.044755 0.396544 -0.976437
-0.321931 0.734643 -0.832252
0.610926 0.079742 0.574046
-0.591564 0.477875 -0.44518
-0.402446 0.59891 0.173921
-0.290034 0.521776 0.585059
-0.300341 0.760544 -0.696618
0.654928 0.203533 -0.434007
0.655939 -0.034797 0.12113
-0.666109 0.175343 -0.039876
-0.638152 -0.084465 -0.084558
0.312675 0.349395 0.973725
-0.115472 0.768103 0.129347
0.279053 -0.246239 -0.409006
-0.260661 -0.033458 -0.314149
-0.502227 0.025765 -0.286021
-0.595095 0.375062 0.024765
0.164376 0.595378 -0.624027
-0.220824 0.751386 0.109969
-0.365069 -0.683248 0.242727
0.584973 0.165584 -0.69412
0.478351 0.318182 -0.734803
-0.614812 -0.434011 0.203051
-0.17247 -0.477908 -0.044524
0.237941 0.200629 -0.881242
-0.5777 0.346031 0.175262
0.039665 -0.177669 -0.352091
0.297781 0.446231 -0.792459
0.379181 0.094746 -0.802914
0.642063 0.270536 -0.31008
-0.32203 0.214684 -0.578587
-0.682056 0.072439 0.035009
0.370824 0.571059 0.031958
0.597845 -0.05484 0.568401
0.633794 -0.102314 0.015327
0.464531 -0.258286 -0.374048
0.362675 -0.128393 -0.552221
-0.457618 0.59155 0.032655
-0.253341 0.060214 -0.414986
0.293532 0.612922 -0.088265
0.619567 0.247628 0.41027
0.082209 0.682911 -0.393883
0.34117 0.00713 -0.678888
-0.663091 0.013965 -0.100646
-0.628125 0.332067 -0.305675
-0.624259 -0.347684 0.474253
-0.296538 0.780017 -0.376889
0.500655 -0.088529 -0.594271
0.015799 -0.123064 -0.382114
0.537454 -0.226885 0.55263
-0.409634 0.614476 0.113347
-0.242804 0.783411 -0.446155
-0.386907 0.553249 0.329533
-0.40949 0.731516 -0.416879
-0.238852 0.765849 -0.624636
-0.112276 -0.788581 0.387989
0.167234 -0.657737 0.292311
-0.338838 -0.434216 -0.005911
-0.412427 0.70478 -0.891932
-0.219434 0.532698 0.663408
0.518121 0.402933 -0.401977
0.305492 0.392584 0.935282
0.057427 0.740914 -0.116551
0.08138 0.588657 -0.783475
0.262395 -0.528607 0.665989
0.494138 0.242271 -0.794552
0.234741 -0.43016 -0.19397
0.582865 -0.198071 -0.183436
-0.201838 0.319847 -0.808482
0.022561 0.745244 -0.20066
-0.125146 0.786524 -0.09788
0.291365 0.596627 0.431393
-0.443299 0.589105 0.084979
0.174767 0.238844 -0.902232
-0.346779 0.008092 -0.319871
-0.288344 0.522517 -0.974701
-0.665456 -0.089527 0.321637
0.468045 -0.212004 -0.459438
-0.116894 0.711779 -0.666967
0.404861 -0.339228 -0.27588
-0.335871 0.6594 0.168758
-0.560675 0.243138 0.370287
0.431616 -0.375392 -0.138134
-0.317772 0.499113 -0.943854
-0.226555 -0.746795 0.269155
-0.444409 0.717088 -0.509625
-0.230716 0.185022 -0.593832
0.606717 -0.161743 -0.186192
-0.499475 0.674655 -0.698268
-0.401214 0.660853 -0.0006
0.146591 0.606042 0.658764
-0.036575 0.603736 0.670895
0.438004 0.4345 -0.543194
0.278651 -0.308054 -0.340078
0.540242 0.346681 0.552221
-0.4226 0.431644 0.478731
-0.238059 -0.121089 -0.251999
0.540041 0.435043 0.079695
0.368104 -0.457427 0.146062
0.072686 0.565501 -0.853037
-0.514837 0.597172 -0.253309
0.60813 -0.148682 -0.350128
0.298759 -0.433038 -0.177317
-0.657499 -0.388594 0.284062
0.535681 -0.093568 0.736982
-0.623309 0.304006 0.044674
-0.666246 0.098448 0.172949
0.211086 -0.610915 0.235097
0.492763 -0.312839 0.512112
0.587187 -0.138591 0.492066
-0.097461 -0.75711 0.586294
-0.61237 0.392921 -0.406597
-0.668511 0.10134 -0.108519
-0.594083 0.395955 -0.509215
-0.615769 0.118055 0.333908
-0.086409 0.526712 -0.989968
0.685601 0.129519 -0.348048
0.62652 -0.092869 0.236196
0.090827 0.727764 0.082537
0.552609 -0.237022 0.227093
-0.233312 0.259846 -0.700716
-0.637725 -0.011537 -0.139467
0.371159 0.48017 -0.56102
-0.585182 0.478001 -0.546669
0.119493 0.283319 -0.924695
-0.573685 -0.108343 -0.127272
0.340262 0.592217 0.061714
-0.67152 -0.151397 0.031304
0.415269 0.521269 -0.205688
0.471816 -0.340829 -0.113512
-0.002815 0.436553 -0.996993
-0.632126 0.30463 -0.029067
-0.461825 0.625754 -0.908828
-0.297338 0.13016 -0.480264
0.685801 0.056637 0.018002
-0.660939 0.204709 -0.08067
-0.122487 0.359228 -0.908507
-0.341562 0.759276 -0.709219
-0.498867 0.632045 -0.31709
0.50468 -0.028091 0.827866
-0.302046 0.629081 -0.982604
-0.387047 0.025141 -0.323667
0.56337 -0.168408 -0.444557
-0.530571 0.632185 -0.572889
0.164831 -0.21814 -0.387159
0.504316 -0.310725 0.324405
-0.617511 0.077747 0.356632
0.550579 -0.209709 -0.34719
-0.646502 -0.422255 0.363003
-0.442144 -0.634095 0.559167
-0.557483 0.537698 -0.701041
0.549914 -0.017702 0.743393
-0.37072 0.49649 0.485643
0.667231 -0.02837 -0.391777
0.015797 0.75895 -0.081218
0.105322 -0.700689 0.293217
-0.660706 -0.082162 -0.045943
-0.279618 0.762066 -0.105242
-0.564759 0.525321 -0.660512
0.263635 0.51138 -0.701984
-0.519578 0.127769 -0.375799
-0.469196 0.524245 -0.852367
-0.672527 -0.314331 0.237046
-0.572318 0.163712 -0.36664
-0.327431 0.725331 -0.01954
-0.572262 0.515016 -0.311653
0.595765 -0.154552 -0.395223
-0.518134 0.511838 0.027224
-0.435498 0.250472 -0.557948
-0.565479 -0.308929 0.025614
-0.374775 0.216374 -0.550506
-0.051525 -0.478849 -0.086582
-0.083298 0.595898 -0.92537
-0.623597 -0.385635 0.460511
0.047404 -0.635166 0.085768
0.446618 0.51483 -0.006578
0.192706 -0.052687 -0.556381
0.362077 -0.44161 0.702699
-0.256627 0.596808 0.473243
-0.368985 0.728792 -0.858699
0.484691 -0.331956 0.19218
-0.015275 0.726845 -0.390254
0.23438 0.641316 -0.15916
-0.435376 0.581291 0.128611
0.691911 0.105374 0.013525
0.387772 0.492722 -0.470382
-0.567532 0.252773 -0.454416
0.500289 0.420787 0.458139
-0.638452 -0.366927 0.1766
0.555598 0.419664 0.032226
0.343893 -0.196255 -0.483998
-0.416432 0.146345 -0.44556
0.406567 -0.410693 -0.032699
-0.612582 -0.461314 0.23888
-0.222672 0.079557 -0.454747
0.670086 0.240496 0.061231
-0.334368 0.767379 -0.631858
0.664299 0.252818 -0.050944
0.24667 0.634724 0.324863
0.588179 -0.018443 0.632004
0.340043 0.365865 0.932061
-0.472332 -0.114889 -0.168376
0.241341 0.547098 -0.638002
-0.621707 0.364181 -0.16615
0.322294 0.603521 0.177935
0.258953 -0.491544 -0.088158
0.274254 -0.564466 0.474079
0.442879 -0.379315 0.154375
-0.358219 0.466896 0.555117
0.296497 0.583228 0.488304
0.490668 0.139758 0.87668
-0.599222 -0.504774 0.426116
0.105316 0.51411 0.868556
-0.094339 -0.787435 0.468358
-0.352495 0.423941 0.625279
-0.095768 0.75879 0.183844
-0.027265 -0.190118 -0.305393
-0.020799 0.768264 -0.105155
-0.017638 -0.683376 0.144186
0.483018 0.430761 0.500393
-0.452447 0.628474 -0.075543
-0.58987 0.430202 -0.108879
0.587469 0.305366 -0.485596
-0.159085 -0.731834 0.216682
-0.554332 -0.490521 0.526054
-0.181074 0.066851 -0.462774
0.249283 0.021008 -0.663441
-0.686488 -0.177129 0.126935
-0.621673 0.289814 0.085887
0.019973 0.473776 -0.992845
0.608399 0.005791 0.564969
0.344859 0.587377 0.210386
0.48265 -0.006849 -0.675817
-0.612683 0.408085 -0.318917
0.270207 0.622846 -0.133071
0.62226 0.18503 -0.604046
-0.100576 0.15727 -0.641958
0.65617 0.207765 0.246686
0.428233 0.247963 -0.860758
-0.655213 0.201653 -0.161456
0.175167 -0.256941 -0.356698
0.333353 0.499313 0.723081
-0.45715 -0.644167 0.267222
0.079731 0.268209 -0.898646
-0.02975 -0.638783 0.079945
0.564118 0.369339 -0.34239
0.108935 0.716277 -0.112865
0.083681 0.694451 -0.329056
0.29888 0.619685 0.11341
-0.022267 0.768136 -0.011482
0.380431 -0.012472 -0.665755
0.400557 0.370959 -0.768479
-0.387348 -0.647806 0.209732
-0.222381 0.633659 -0.959171
0.415007 -0.419146 0.389495
0.034969 0.736986 0.158148
0.663204 0.248376 -0.108887
0.394332 0.544758 -0.122136
-0.145138 0.786697 -0.281789
-0.206059 -0.404958 -0.08257
0.654378 0.25328 0.171634
0.282598 0.237677 -0.915609
-0.478845 -0.601154 0.540194
0.206873 0.662427 0.253618
-0.622918 -0.474072 0.381602
-0.073844 0.686599 0.416487
0.422489 0.504632 0.420081
-0.235192 0.78765 -0.247773
-0.189986 0.691953 0.309694
0.405259 -0.386253 0.715713
-0.221803 0.788652 -0.353319
0.6142 -0.013842 0.526495
0.144469 0.559249 -0.77936
0.605239 0.145264 0.584684
-0.214246 0.772705 0.015614
-0.084892 0.605092 0.636855
0.206988 -0.327627 -0.302433
-0.407304 0.306525 -0.651109
0.003255 -0.700606 0.180947
0.340192 -0.403465 -0.209434
-0.684393 -0.137401 0.070276
-0.413124 0.352662 -0.71202
-0.132929 0.785331 -0.053619
-0.170782 0.762808 0.124927
-0.656523 -0.225386 0.064563
0.690241 0.07408 -0.059611
-0.407263 -0.688846 0.289791
0.604597 0.190853 0.557717
0.641578 0.041301 0.403372
0.513901 0.455023 -0.077787
0.121324 0.548178 0.803528
-0.09497 -0.523828 -0.032244
-0.443319 0.69196 -0.317169
0.568942 -0.208512 -0.257215
0.011655 0.004227 -0.511565
-0.191571 0.377938 -0.891861
0.508495 0.20513 0.81609
0.405352 -0.09789 -0.586905
0.171075 -0.662666 0.355866
0.641741 0.229228 0.298978
0.669963 -0.028632 -0.144076
0.56112 -0.210219 0.435335
-0.254688 -0.162214 -0.215251
0.01793 0.662746 -0.635448
0.409242 0.447512 0.698619
0.102018 0.237888 -0.876162
-0.656266 -0.295099 0.41088
0.683429 0.187405 -0.113063
0.656194 0.170288 -0.487143
-0.42539 -0.104645 -0.193445
-0.519285 0.563053 -0.822557
-0.460338 0.611068 -0.039826
0.179808 -0.507534 -0.090033
0.584291 -0.191413 -0.010598
-0.280448 0.767726 -0.649171
0.118107 -0.172131 -0.402327
-0.521529 -0.611847 0.449225
0.296913 0.01365 -0.672645
-0.138946 -0.635294 0.090302
0.271993 0.133835 -0.819115
-0.578087 0.380513 -0.543425
0.345575 -0.472276 0.051811
-0.500849 0.26915 -0.535073
0.392868 0.251514 -0.887664
-0.210724 -0.786513 0.488966
0.620891 -0.056157 0.437651
-0.256708 0.709856 0.178603
0.101975 0.520137 -0.912072
0.621742 0.109939 0.526012
0.096576 0.665581 -0.451037
0.57472 0.002201 -0.64172
-0.424852 -0.708165 0.410106
0.474666 0.403628 0.626611
0.074704 0.723627 0.170329
0.690389 0.125358 -0.263541
0.136054 0.100108 -0.711537
-0.677083 -0.284117 0.303254
-0.005143 -0.713619 0.608661
-0.378027 -0.685955 0.582182
-0.113555 0.723319 -0.614548
-0.646093 0.270351 -0.074235
-0.446034 0.380706 0.491169
0.41246 0.543674 0.076201
-0.319863 -0.628341 0.147767
0.412256 -0.420974 0.320373
-0.237563 0.502428 0.696274
0.288724 0.622814 0.207645
0.538039 -0.258238 0.168881
-0.201619 -0.530067 0.009452
-0.348353 0.540705 -0.955331
-0.519385 -0.175748 -0.099896
-0.491248 0.512701 -0.819566
0.593305 0.265853 -0.572486
0.535481 0.019663 0.785738
-0.065672 0.022229 -0.481397
0.251489 -0.582924 0.333255
0.581549 -0.186153 0.263746
-0.036289 -0.007173 -0.465894
-0.171636 0.594979 0.585531
-0.208436 0.763942 -0.588374
-0.487612 0.681257 -0.525243
0.271597 0.629266 -0.055891
-0.661973 -0.352809 0.367875
-0.514865 0.335557 0.38636
0.452804 0.436923 -0.495416
-0.215749 0.585974 -0.993446
0.432949 0.377015 -0.701977
0.239446 0.654925 0.036397
0.09865 0.665052 0.481208
-0.584381 0.301349 -0.468273
0.575502 -0.207695 -0.04684
-0.550408 -0.480791 0.161205
-0.274584 -0.299434 -0.119553
-0.116469 0.574351 -0.97059
0.136353 -0.407083 -0.204004
-0.146712 0.710826 -0.717461
0.491038 -0.321109 -0.024284
-0.62315 -0.231111 0.019363
-0.130993 0.445602 -0.981131
0.683298 0.034926 -0.022858
-0.584172 -0.254557 0.00021
0.351579 0.555362 0.441956
-0.274011 0.735689 0.075651
-0.155409 0.75328 0.17658
0.256666 -0.554913 0.126936
-0.168643 -0.191762 -0.233106
0.538862 0.427315 0.180053
0.608436 -0.125846 0.30468
-0.376929 0.628295 0.160052
-0.621437 0.232682 0.190553
-0.210283 -0.31391 -0.138194
0.546131 0.086885 0.772988
-0.483034 0.339721 0.455702
0.667208 0.006569 0.126792
-0.147937 0.531583 0.748876
0.545493 0.164948 0.759738
-0.156442 0.719246 0.267613
0.499406 0.018814 0.849067
-0.522407 0.360757 -0.613137
0.010281 0.65662 0.536774
0.531822 0.199827 0.774467
0.163909 0.677632 -0.184522
0.177351 -0.345031 -0.275319
-0.625001 0.122197 -0.255786
-0.648409 0.225557 -0.198124
0.359967 0.493798 0.681482
-0.421668 0.002031 -0.289875
0.239409 0.450327 -0.871567
0.160028 -0.591386 0.649311
0.621373 -0.033614 0.469706
0.335926 0.591187 -0.021943
0.014088 0.595597 0.712698
-0.371584 0.131102 -0.446933
-0.579802 -0.347184 0.066795
0.102314 -0.214992 -0.357038
0.463573 0.427816 0.584435
0.687723 0.164235 -0.160873
0.088734 0.707662 -0.24315
0.13078 0.367945 -0.971291
-0.408739 0.617815 -0.951414
-0.536264 0.339335 0.32626
0.363453 0.5621 0.339692
-0.214348 0.668584 0.346894
-0.552108 0.545276 -0.278077
0.23979 0.634084 0.366087
0.300278 -0.021155 -0.634789
0.65036 0.110507 0.360393
0.108389 0.721185 -0.06369
0.041241 -0.209497 -0.327965
-0.350483 0.672256 0.1021
0.333158 -0.466002 -0.056477
0.412708 -0.40786 0.082996
-0.642924 0.208252 0.123486
0.301259 0.579906 -0.323067
-0.007158 0.761258 0.035818
0.562127 -0.229466 -0.166706
0.450573 0.515011 0.079102
0.017175 -0.555764 -0.026974
-0.606208 -0.497461 0.296068
-0.213178 -0.362205 -0.107139
-0.546905 0.381394 0.220294
-0.535035 0.627549 -0.674711
-0.072181 -0.620645 0.061736
-0.290556 -0.724459 0.261531
-0.507873 0.289515 0.453105
-0.514546 -0.289959 -0.020334
0.554132 -0.110753 0.671661
0.688376 0.049775 -0.234344
0.145586 -0.686871 0.376245
-0.370073 -0.484327 0.04492
0.681107 0.008713 -0.223511
-0.063428 0.776175 -0.155662
-0.33866 0.765509 -0.374473
-0.242763 -0.70042 0.199561
-0.521259 0.522771 -0.022355
0.668868 -0.033973 -0.186436
0.42804 0.463685 0.577025
0.340215 -0.481957 0.110202
-0.375598 -0.550926 0.102313
0.145391 0.073868 -0.681435
-0.534939 -0.131251 -0.128565
-0.086737 -0.591205 0.032207
-0.141656 -0.120317 -0.297404
0.242236 -0.146344 -0.491794
-0.671474 -0.008755 0.257709
0.438982 0.391564 0.75136
-0.548771 0.593666 -0.688648
-0.141268 -0.258349 -0.202874
-0.039261 0.642372 -0.780759
0.184973 0.655289 0.396001
0.635987 0.259396 0.263475
0.450741 0.483464 0.394855
-0.540295 0.612719 -0.532259
0.073599 0.146655 -0.740694
0.410707 0.423432 0.746972
-0.134427 0.70499 0.325262
0.66702 0.150917 -0.451344
-0.274964 -0.776261 0.412735
0.450886 -0.36461 0.531497
-0.082646 0.736376 -0.489745
0.371755 -0.437636 -0.054235
-0.621237 0.369829 -0.206111
0.418652 0.088118 -0.795957
0.267899 0.557659 -0.534032
0.603002 -0.131193 0.355527
-0.188555 0.290877 -0.775849
0.264056 0.041342 -0.69432
0.639706 -0.079819 -0.460851
-0.490489 0.581986 -0.871892
0.158525 0.623063 -0.515357
-0.165883 0.686897 -0.813341
-0.593128 -0.495096 0.24512
-0.095109 0.774512 -0.283411
-0.488422 0.628956 -0.244076
0.16471 0.274731 -0.92802
-0.473778 0.697357 -0.730791
0.142411 0.646441 0.518124
-0.051491 0.771994 0.029144
0.611561 -0.152246 -0.090386
0.343638 -0.46556 -0.014979
-0.174636 0.599913 -0.974564
0.081767 0.607222 0.687799
-0.298437 0.761981 -0.169043
-0.20407 0.766573 0.069795
-0.104236 -0.03131 -0.395679
0.655987 0.00353 -0.521402
0.26911 0.638154 0.095608
0.672923 -0.008798 -0.060127
0.444342 0.14587 0.943024
-0.485749 0.686195 -0.576568
-0.676712 0.093752 -0.052267
-0.519054 0.400503 -0.662907
0.182137 0.507055 -0.849684
0.033933 -0.74432 0.325778
0.647401 -0.077598 -0.405979
-0.684937 -0.223443 0.250618
0.674096 0.219154 -0.156137
-0.670053 -0.342512 0.289652
0.089377 0.166376 -0.77726
-0.680935 0.073526 -0.018286
0.318638 0.594333 -0.118983
0.454454 -0.177521 -0.513308
0.571864 0.397348 -0.072379
0.374673 0.513589 -0.418433
0.178946 0.44525 -0.941403
0.496931 -0.275981 -0.286979
-0.440105 0.678668 -0.238898
-0.213728 0.54469 -0.999076
0.215413 0.573753 -0.596947
0.120923 -0.67862 0.243529
-0.332689 0.129234 -0.461902
0.68528 0.145945 0.124347
-0.424732 0.50381 0.344238
-0.428276 0.7318 -0.688139
-0.201254 0.517469 0.717062
-0.03626 0.71848 -0.483168
0.547141 -0.246131 0.270324
-0.173345 0.7828 -0.373478
-0.335353 -0.34839 -0.063971
0.111398 0.062023 -0.647377
0.23149 0.660323 0.106913
0.451381 -0.367018 0.114523
-0.465139 0.422884 0.392543
0.143535 0.640262 -0.467406
